ply
format ascii 1.0
element vertex 717
property float x
property float y
property float z
property uchar red
property uchar green
property uchar blue
property uchar alpha
end_header
-78.4626 -128.156 753 214 254 250 255
-75.7465 -127.985 752 148 100 92 255
-78.4626 -125.54 753 196 224 197 255
-75.7465 -125.373 752 126 113 122 255
-72.94 -125.04 750 82 78 99 255
-70.6163 -125.54 753 92 129 110 255
-81.2934 -123.251 755 181 247 244 255
-78.3584 -122.761 752 167 182 150 255
-75.545 -122.435 750 101 114 112 255
-72.94 -122.435 750 77 64 65 255
-70.335 -122.435 750 59 69 80 255
-67.73 -122.435 750 69 63 108 255
-81.078 -120.309 753 191 221 248 255
-78.15 -119.83 750 169 191 200 255
-75.545 -119.83 750 108 90 105 255
-72.7455 -119.51 748 73 73 54 255
-70.335 -119.83 750 62 57 74 255
-67.73 -119.83 750 61 62 68 255
-80.9703 -117.538 752 179 228 246 255
-77.8374 -116.756 747 178 211 226 255
-75.2428 -116.756 747 132 154 132 255
-72.7455 -116.912 748 75 69 67 255
-70.1474 -116.912 748 45 55 35 255
-67.5494 -116.912 748 39 35 46 255
-80.5396 -114.314 748 178 235 252 255
-77.629 -113.856 745 169 189 200 255
-75.0414 -113.856 745 129 158 167 255
-72.4537 -113.856 745 88 85 99 255
-70.0537 -114.162 747 37 34 18 255
-67.5494 -114.314 748 19 21 29 255
-77.8374 -111.567 747 189 216 215 255
-75.0414 -111.268 745 150 166 173 255
-72.6482 -111.567 747 108 104 112 255
-70.0537 -111.567 747 64 65 43 255
-67.5494 -111.716 748 38 35 24 255
-64.9513 -111.716 748 65 55 82 255
-78.15 -109.41 750 194 221 231 255
-75.3435 -109.118 748 150 163 200 255
-72.7455 -109.118 748 111 115 106 255
-70.1474 -109.118 748 73 72 57 255
-67.5494 -109.118 748 50 43 44 255
-65.125 -109.41 750 48 36 51 255
-78.15 -106.805 750 212 246 238 255
-75.545 -106.805 750 176 183 216 255
-72.94 -106.805 750 125 164 142 255
-70.335 -106.805 750 80 69 51 255
-67.73 -106.805 750 60 59 75 255
-65.125 -106.805 750 41 27 39 255
-78.3584 -104.478 752 204 254 254 255
-75.545 -104.2 750 174 168 210 255
-72.94 -104.2 750 137 181 186 255
-70.1474 -103.922 748 98 82 37 255
-67.73 -104.2 750 58 65 75 255
-65.125 -104.2 750 37 37 16 255
-75.7465 -101.866 752 170 168 205 255
-72.94 -101.595 750 134 164 196 255
-70.335 -101.595 750 100 100 92 255
-67.73 -101.595 750 58 59 76 255
-65.125 -101.595 750 37 41 29 255
-62.6867 -101.866 752 46 38 34 255
-75.8472 -99.386 753 168 180 197 255
-73.2318 -99.386 753 133 132 172 255
-70.5226 -99.254 752 109 149 142 255
-67.73 -98.99 750 64 42 61 255
-65.125 -98.99 750 29 38 59 255
-62.6867 -99.254 752 26 25 7 255
-59.915 -98.99 750 90 137 119 255
-76.0486 -97.0276 755 176 216 213 255
-73.2318 -96.7705 753 130 126 139 255
-70.5226 -96.642 752 100 135 132 255
-67.73 -96.385 750 70 45 57 255
-65.125 -96.385 750 45 46 63 255
-62.6867 -96.642 752 28 26 7 255
-60.0748 -96.642 752 72 93 120 255
-73.4263 -94.4052 755 120 113 136 255
-70.6163 -94.1551 753 82 117 137 255
-67.9106 -94.0301 752 54 31 63 255
-65.3855 -94.1551 753 44 51 61 255
-62.7701 -94.1551 753 26 45 36 255
-60.1547 -94.1551 753 54 72 87 255
-70.5226 -91.4181 752 92 104 122 255
-67.9106 -91.4181 752 52 8 58 255
-65.2987 -91.4181 752 34 37 50 255
-62.9368 -91.7828 755 40 49 57 255
-60.3943 -91.9044 756 40 41 47 255
-57.7685 -91.9044 756 91 144 152 255
-65.2987 -88.8062 752 33 38 45 255
-62.9368 -89.1605 755 38 44 50 255
-60.3144 -89.1605 755 30 34 43 255
-57.7685 -89.2786 756 80 131 108 255
-65.125 -85.965 750 36 39 47 255
-62.9368 -86.5381 755 29 38 31 255
-60.3144 -86.5381 755 16 35 28 255
-57.7685 -86.6527 756 63 90 77 255
-70.335 -83.36 750 115 137 87 255
-67.73 -83.36 750 56 27 59 255
-65.2987 -83.5823 752 28 30 45 255
-62.9368 -83.9157 755 23 28 10 255
-60.3144 -83.9157 755 12 29 35 255
-57.7685 -84.0269 756 52 77 73 255
-73.5235 -81.401 756 137 144 179 255
-70.8039 -81.2934 755 94 76 115 255
-68.0009 -81.078 753 59 55 49 255
-65.3855 -81.078 753 43 25 52 255
-62.9368 -81.2934 755 30 28 14 255
-60.3943 -81.401 756 20 30 50 255
-57.7685 -81.401 756 50 33 49 255
-74.0098 -79.2962 761 144 156 168 255
-71.0852 -78.9836 758 113 130 149 255
-68.2718 -78.7752 756 70 76 78 255
-65.5592 -78.671 755 41 35 53 255
-63.0202 -78.7752 756 32 29 40 255
-60.3943 -78.7752 756 24 34 55 255
-57.9213 -78.9836 758 34 44 49 255
-71.3666 -76.653 761 142 156 192 255
-68.6331 -76.5523 760 117 122 136 255
-65.9933 -76.5523 760 92 87 108 255
-63.3536 -76.5523 760 60 51 28 255
-60.5541 -76.3508 758 30 26 29 255
-58.0741 -76.5523 760 19 26 32 255
-71.7417 -74.3988 765 156 168 205 255
-68.7234 -74.0098 761 153 162 176 255
-66.0802 -74.0098 761 151 163 178 255
-63.3536 -73.9125 760 98 118 52 255
-60.7139 -73.9125 760 46 41 15 255
-58.1505 -74.0098 761 30 38 20 255
-55.4344 -73.9125 760 67 97 105 255
-68.904 -71.5541 763 164 203 219 255
-66.0802 -71.3666 761 165 187 195 255
-63.437 -71.3666 761 136 155 124 255
-60.7938 -71.3666 761 80 69 28 255
-58.1505 -71.3666 761 37 46 41 255
-55.5073 -71.3666 761 72 83 102 255
-68.7234 -68.7234 761 166 197 233 255
-66.2538 -68.904 763 175 197 218 255
-63.437 -68.7234 761 144 169 146 255
-60.7938 -68.7234 761 80 55 46 255
-58.1505 -68.7234 761 37 63 70 255
-55.5073 -68.7234 761 64 81 90 255
-68.904 -66.2538 763 172 207 238 255
-66.2538 -66.2538 763 183 206 243 255
-63.6037 -66.2538 763 154 176 159 255
-60.9535 -66.2538 763 84 85 63 255
-58.3034 -66.2538 763 49 50 57 255
-55.6532 -66.2538 763 61 47 83 255
-66.6012 -63.9371 767 185 223 254 255
-63.7704 -63.7704 765 174 194 200 255
-61.1133 -63.7704 765 109 131 85 255
-58.4562 -63.7704 765 54 49 45 255
-55.945 -63.9371 767 51 65 81 255
-53.4893 -64.1872 770 100 131 142 255
-66.688 -61.353 768 192 235 254 255
-64.0205 -61.353 768 189 206 230 255
-61.353 -61.353 768 109 106 127 255
-58.609 -61.2731 767 60 43 70 255
-56.0179 -61.353 768 59 71 78 255
-53.6283 -61.6725 772 92 116 148 255
-66.8617 -58.8383 770 179 218 248 255
-64.1872 -58.8383 770 192 216 240 255
-61.353 -58.6854 768 137 162 174 255
-58.6854 -58.6854 768 67 34 61 255
-56.1638 -58.8383 770 44 63 78 255
-53.4893 -58.8383 770 79 90 97 255
-67.0353 -56.3097 772 174 179 230 255
-64.1872 -56.1638 770 189 223 250 255
-61.5127 -56.1638 770 162 181 202 255
-58.8383 -56.1638 770 85 53 52 255
-56.1638 -56.1638 770 37 62 72 255
-53.6283 -56.3097 772 67 69 52 255
-50.9469 -56.3097 772 133 165 164 255
-67.2958 -53.8367 775 156 146 200 255
-64.4373 -53.6977 773 170 227 254 255
-61.6725 -53.6283 772 163 192 178 255
-58.8383 -53.4893 770 96 103 54 255
-56.3826 -53.6977 773 36 15 33 255
-53.6283 -53.6283 772 47 72 42 255
-50.8149 -53.4893 770 121 156 142 255
-67.2958 -51.1448 775 152 137 172 255
-64.604 -51.1448 775 150 201 246 255
-61.7524 -51.0128 773 128 141 145 255
-58.9911 -50.9469 772 81 91 47 255
-56.3826 -51.0128 773 60 21 36 255
-53.6977 -51.0128 773 53 65 41 255
-51.0128 -51.0128 773 101 137 127 255
-67.4695 -48.578 777 148 160 164 255
-64.604 -48.453 775 129 133 210 255
-61.7524 -48.328 773 108 93 117 255
-58.9911 -48.2654 772 84 85 80 255
-56.3826 -48.328 773 66 17 73 255
-53.8367 -48.453 775 51 55 50 255
-51.1448 -48.453 775 92 124 140 255
-64.7707 -45.8793 777 156 203 206 255
-61.9122 -45.7612 775 131 130 130 255
-59.0675 -45.6431 773 76 74 102 255
-56.3826 -45.6431 773 46 53 82 255
-53.8367 -45.7612 775 35 57 53 255
-51.1448 -45.7612 775 78 86 134 255
-64.7707 -43.1805 777 154 200 220 255
-61.9122 -43.0693 775 140 160 170 255
-59.2203 -43.0693 775 83 78 69 255
-56.5285 -43.0693 775 64 73 88 255
-53.8367 -43.0693 775 60 64 49 255
-51.1448 -43.0693 775 74 72 108 255
-123.706 -38.6582 742 49 46 112 255
-121.129 -38.6582 742 33 41 101 255
-64.7707 -40.4817 777 160 192 205 255
-61.9122 -40.3775 775 165 199 206 255
-59.2203 -40.3775 775 106 87 87 255
-56.5285 -40.3775 775 70 72 86 255
-53.9756 -40.4817 777 72 75 63 255
-51.2768 -40.4817 777 70 59 91 255
-129.382 -36.2269 745 156 159 162 255
-126.454 -36.1296 743 133 140 143 255
-123.706 -36.081 742 86 69 78 255
-121.292 -36.1296 743 67 56 101 255
-118.712 -36.1296 743 59 50 79 255
-64.9374 -37.8802 779 156 186 204 255
-62.0719 -37.7829 777 155 183 224 255
-59.3732 -37.7829 777 113 116 122 255
-56.6744 -37.7829 777 74 58 87 255
-54.1145 -37.8802 779 72 78 87 255
-51.4748 -37.9288 780 64 65 82 255
-48.8906 -38.0261 782 104 125 136 255
-132.501 -33.7747 748 171 186 188 255
-129.382 -33.6392 745 168 170 185 255
-126.454 -33.5489 743 137 122 149 255
-123.873 -33.5489 743 94 88 55 255
-121.292 -33.5489 743 80 87 98 255
-118.712 -33.5489 743 76 80 84 255
-116.131 -33.5489 743 59 48 69 255
-62.2317 -35.1744 779 124 154 187 255
-59.526 -35.1744 779 109 92 133 255
-56.8203 -35.1744 779 74 55 83 255
-54.184 -35.2196 780 69 78 83 255
-51.6068 -35.3099 782 58 77 78 255
-132.501 -31.1766 748 172 206 200 255
-129.729 -31.135 747 179 219 203 255
-126.794 -31.0516 745 170 190 157 255
-124.206 -31.0516 745 128 128 50 255
-121.619 -31.0516 745 69 76 75 255
-119.351 -31.135 747 29 30 61 255
-116.912 -31.1766 748 11 11 19 255
-113.957 -31.8018 763 40 39 77 255
-62.4714 -32.5938 782 138 176 158 255
-59.6024 -32.5104 780 127 151 152 255
-56.8203 -32.4687 779 83 87 89 255
-54.1145 -32.4687 779 61 57 60 255
-51.4748 -32.5104 780 58 73 83 255
-48.8906 -32.5938 782 98 103 130 255
-132.855 -28.655 750 151 153 170 255
-129.903 -28.5786 748 156 186 193 255
-127.305 -28.5786 748 159 168 166 255
-124.707 -28.5786 748 145 141 128 255
-122.109 -28.5786 748 123 105 64 255
-119.83 -28.655 750 73 67 21 255
-117.225 -28.655 750 30 26 19 255
-115.384 -28.846 755 31 13 41 255
-113.658 -29.0753 761 42 67 30 255
-62.6311 -29.954 784 138 148 171 255
-59.7552 -29.8776 782 146 177 198 255
-56.8932 -29.8012 780 102 106 115 255
-54.184 -29.8012 780 51 36 57 255
-51.7388 -29.954 784 54 77 80 255
-49.0157 -29.954 784 94 90 123 255
-46.4107 -30.0304 786 150 178 184 255
-130.597 -26.1195 752 148 153 171 255
-127.985 -26.1195 752 153 161 162 255
-125.373 -26.1195 752 162 169 176 255
-122.435 -26.05 750 146 154 133 255
-119.83 -26.05 750 65 65 30 255
-117.538 -26.1195 752 22 4 19 255
-115.384 -26.2237 755 33 25 48 255
-113.509 -26.3973 760 34 29 33 255
-110.577 -26.3279 758 39 37 53 255
-107.944 -26.3279 758 41 41 60 255
-105.311 -26.3279 758 48 54 80 255
-62.6311 -27.2309 784 150 164 188 255
-59.9081 -27.2309 784 167 205 231 255
-57.0391 -27.1615 782 115 112 133 255
-54.3229 -27.1615 782 56 51 80 255
-51.7388 -27.2309 784 60 79 85 255
-49.0157 -27.2309 784 86 88 107 255
-46.4107 -27.3004 786 142 169 181 255
-122.925 -23.5388 753 159 176 174 255
-120.309 -23.5388 753 144 167 118 255
-118.007 -23.6013 755 75 81 41 255
-115.384 -23.6013 755 31 11 26 255
-112.911 -23.6326 756 35 25 48 255
-110.285 -23.6326 756 29 21 36 255
-108.371 -23.7889 761 31 34 29 255
-106.006 -23.8514 763 39 52 61 255
-103.627 -23.9139 765 46 58 78 255
-102.026 -24.164 773 48 49 79 255
-98.9553 -24.0702 770 51 81 78 255
-60.0609 -24.5704 786 175 242 233 255
-57.185 -24.5078 784 129 130 145 255
-54.4619 -24.5078 784 51 48 53 255
-51.7388 -24.5078 784 56 84 92 255
-49.0157 -24.5078 784 78 54 104 255
-46.4107 -24.5704 786 137 165 176 255
-120.629 -20.9789 755 149 157 163 255
-118.007 -20.9789 755 135 160 121 255
-115.537 -21.0067 756 73 65 40 255
-113.21 -21.0623 758 38 21 35 255
-110.577 -21.0623 758 42 31 37 255
-108.656 -21.2012 763 25 17 21 255
-106.562 -21.3124 767 22 21 57 255
-104.033 -21.3402 768 37 38 60 255
-101.894 -21.4513 772 40 45 65 255
-99.3408 -21.4791 773 37 24 46 255
-97.4062 -21.6458 779 36 46 91 255
-95.0651 -21.7292 782 63 103 123 255
-63.5099 -22.0904 795 132 133 150 255
-60.2137 -21.8959 788 175 241 248 255
-57.3308 -21.8403 786 151 165 148 255
-54.4619 -21.7847 784 75 59 48 255
-51.8708 -21.8403 786 65 85 90 255
-49.1407 -21.8403 786 73 21 93 255
-46.2926 -21.7847 784 123 163 176 255
-118.475 -18.4295 758 144 158 154 255
-115.843 -18.4295 758 131 136 123 255
-113.509 -18.4781 760 72 39 56 255
-110.869 -18.4781 760 31 17 28 255
-109.226 -18.6483 767 35 27 30 255
-106.701 -18.6726 768 37 38 63 255
-104.304 -18.7213 770 38 44 60 255
-101.894 -18.7699 772 39 37 28 255
-99.3408 -18.7942 773 28 31 52 255
-97.4062 -18.9401 779 32 47 63 255
-94.822 -18.9644 780 43 46 76 255
-92.1128 -18.9644 780 40 48 106 255
-63.1904 -19.2318 791 117 103 141 255
-60.2901 -19.1832 789 154 215 233 255
-57.3308 -19.1103 786 146 157 153 255
-54.6008 -19.1103 786 80 45 80 255
-51.8708 -19.1103 786 58 67 87 255
-49.1407 -19.1103 786 58 53 60 255
-118.788 -15.8384 760 138 138 142 255
-116.301 -15.8592 761 155 159 148 255
-113.957 -15.9009 763 154 161 143 255
-111.306 -15.9009 763 107 95 36 255
-109.653 -16.0468 770 59 46 10 255
-106.979 -16.0468 770 47 25 69 255
-104.304 -16.0468 770 54 80 75 255
-101.894 -16.0885 772 55 62 22 255
-99.3408 -16.1093 773 42 34 42 255
-97.1561 -16.1927 777 41 42 58 255
-94.822 -16.2552 780 50 54 77 255
-92.349 -16.2969 782 57 64 70 255
-89.4036 -16.2552 780 62 65 65 255
-86.9167 -16.2969 782 59 63 78 255
-66.1045 -16.5261 793 109 113 135 255
-63.1904 -16.4844 791 118 120 141 255
-60.2901 -16.4428 789 159 201 229 255
-57.4767 -16.4219 788 156 170 174 255
-54.6008 -16.3802 786 95 97 87 255
-51.8708 -16.3802 786 62 65 72 255
-49.1407 -16.3802 786 51 53 42 255
-46.2926 -16.3386 784 103 149 152 255
-116.607 -13.2508 763 137 133 131 255
-112.328 -13.3723 770 162 177 118 255
-109.653 -13.3723 770 134 128 75 255
-107.257 -13.4071 772 101 90 98 255
-104.575 -13.4071 772 84 83 66 255
-102.026 -13.4244 773 73 78 64 255
-99.3408 -13.4244 773 65 67 59 255
-96.906 -13.4592 775 60 58 68 255
-94.7004 -13.5286 779 55 60 60 255
-92.1128 -13.546 780 52 47 41 255
-89.6328 -13.5807 782 50 46 30 255
-86.9167 -13.5807 782 54 64 75 255
-84.4159 -13.6155 784 57 63 43 255
-81.9012 -13.6502 786 47 58 50 255
-79.1712 -13.6502 786 20 16 57 255
-76.2466 -13.6155 784 4 8 105 255
-65.9378 -13.737 791 81 93 141 255
-63.1904 -13.737 791 108 103 156 255
-60.2901 -13.7023 789 124 162 202 255
-57.4767 -13.6849 788 128 152 175 255
-54.7397 -13.6849 788 92 99 87 255
-52.0027 -13.6849 788 56 63 45 255
-49.1407 -13.6502 786 35 41 47 255
-110.365 -10.7673 775 128 123 138 255
-107.673 -10.7673 775 124 128 130 255
-104.981 -10.7673 775 98 93 70 255
-102.29 -10.7673 775 67 50 88 255
-99.3408 -10.7395 773 62 72 62 255
-96.906 -10.7673 775 56 67 83 255
-95.0651 -10.8646 782 87 94 110 255
-92.1128 -10.8368 780 114 126 85 255
-89.6328 -10.8646 782 92 83 16 255
-86.9167 -10.8646 782 66 65 88 255
-84.2005 -10.8646 782 56 62 63 255
-81.6928 -10.8924 784 45 41 60 255
-78.9697 -10.8924 784 31 27 59 255
-76.4411 -10.9202 786 37 22 67 255
-73.8986 -10.9479 788 52 48 60 255
-71.1617 -10.9479 788 63 73 85 255
-68.5115 -10.9618 789 76 101 98 255
-65.9378 -10.9896 791 90 111 144 255
-63.1904 -10.9896 791 116 166 184 255
-60.4429 -10.9896 791 128 124 170 255
-57.5497 -10.9618 789 86 87 148 255
-54.7397 -10.9479 788 56 58 89 255
-52.0027 -10.9479 788 54 51 51 255
-49.2658 -10.9479 788 28 34 64 255
-107.951 -8.09634 777 124 118 129 255
-105.659 -8.1276 780 127 124 104 255
-102.554 -8.09634 777 119 112 100 255
-99.5978 -8.0755 775 108 122 93 255
-96.906 -8.0755 775 87 78 98 255
-94.7004 -8.11718 779 88 92 124 255
-92.1128 -8.1276 780 116 145 156 255
-89.6328 -8.14844 782 126 142 84 255
-86.9167 -8.14844 782 109 125 112 255
-84.4159 -8.16928 784 91 109 83 255
-81.6928 -8.16928 784 63 71 75 255
-78.9697 -8.16928 784 42 14 67 255
-76.4411 -8.19012 786 51 56 69 255
-73.8986 -8.21096 788 61 76 67 255
-71.1617 -8.21096 788 50 65 49 255
-68.4247 -8.21096 788 56 55 73 255
-65.9378 -8.24222 791 82 112 141 255
-63.1904 -8.24222 791 113 153 175 255
-60.2901 -8.22138 789 135 162 192 255
-57.5497 -8.22138 789 91 99 123 255
-54.7397 -8.21096 788 47 27 85 255
-52.0687 -8.22138 789 45 45 70 255
-49.3283 -8.22138 789 28 43 67 255
-96.906 -5.38367 775 114 120 102 255
-92.8214 -5.46008 786 75 85 137 255
-89.8621 -5.44619 784 51 51 124 255
-87.139 -5.44619 784 62 89 111 255
-84.4159 -5.44619 784 76 76 91 255
-81.6928 -5.44619 784 67 64 83 255
-79.1712 -5.46008 786 65 71 87 255
-76.4411 -5.46008 786 65 66 60 255
-73.7111 -5.46008 786 63 71 69 255
-71.1617 -5.47397 788 59 63 48 255
-68.4247 -5.47397 788 57 55 58 255
-65.771 -5.48092 789 62 68 113 255
-63.0306 -5.48092 789 71 78 125 255
-60.2901 -5.48092 789 80 115 152 255
-57.5497 -5.48092 789 78 89 106 255
-54.8092 -5.48092 789 59 60 79 255
-52.0687 -5.48092 789 38 46 70 255
-49.3283 -5.48092 789 20 33 44 255
-46.7059 -5.49481 791 65 98 144 255
-93.0575 -2.73699 788 153 163 135 255
-90.3206 -2.73699 788 137 114 120 255
-87.5836 -2.73699 788 98 94 96 255
-84.8466 -2.73699 788 69 35 51 255
-81.9012 -2.73004 786 66 57 72 255
-79.4733 -2.74046 789 73 88 90 255
-76.6356 -2.73699 788 68 62 83 255
-73.8986 -2.73699 788 56 69 91 255
-71.252 -2.74046 789 52 63 98 255
-68.4247 -2.73699 788 52 69 77 255
-65.9378 -2.74741 791 61 65 94 255
-63.0306 -2.74046 789 75 75 90 255
-60.2901 -2.74046 789 78 77 91 255
-57.5497 -2.74046 789 72 82 91 255
-54.8092 -2.74046 789 56 57 78 255
-52.0687 -2.74046 789 33 39 66 255
-49.4533 -2.74741 791 19 30 46 255
-46.824 -2.75435 793 53 56 93 255
-87.917 0 791 156 164 129 255
-84.9543 0 789 137 127 63 255
-82.2138 0 789 117 119 101 255
-79.8762 0 793 122 138 114 255
-76.7329 0 789 124 141 124 255
-73.9924 0 789 115 113 117 255
-71.6132 0 793 104 133 115 255
-68.5115 0 789 93 93 106 255
-65.771 0 789 86 98 103 255
-63.0306 0 789 87 109 105 255
-60.2901 0 789 84 104 102 255
-57.6955 0 791 74 65 86 255
-54.8092 0 789 62 73 67 255
-52.2007 0 791 47 44 59 255
-49.4533 0 791 42 54 61 255
-46.824 0 793 50 11 47 255
-76.9274 2.74741 791 129 141 134 255
-74.18 2.74741 791 111 131 132 255
-71.7938 2.7613 795 93 91 122 255
-68.5115 2.74046 789 90 93 145 255
-65.9378 2.74741 791 112 122 135 255
-63.1904 2.74741 791 132 163 149 255
-60.4429 2.74741 791 126 129 137 255
-57.6955 2.74741 791 108 104 82 255
-54.9481 2.74741 791 77 92 78 255
-52.2007 2.74741 791 48 41 54 255
-49.4533 2.74741 791 27 34 42 255
-46.824 2.75435 793 25 34 38 255
-74.7427 5.53649 797 138 150 131 255
-71.9744 5.53649 797 142 156 133 255
-68.6852 5.49481 791 120 112 140 255
-66.1045 5.50871 793 109 109 147 255
-63.3501 5.50871 793 127 157 175 255
-60.5958 5.50871 793 136 160 178 255
-57.8414 5.50871 793 116 128 103 255
-54.9481 5.49481 791 89 97 89 255
-52.2007 5.49481 791 66 86 52 255
-49.5784 5.50871 793 42 32 48 255
-46.9421 5.5226 795 25 24 27 255
-71.9744 8.30474 797 147 160 141 255
-68.8588 8.26306 793 154 158 132 255
-66.5213 8.31516 798 131 134 150 255
-63.5099 8.2839 795 117 127 143 255
-60.7486 8.2839 795 139 159 184 255
-57.8414 8.26306 793 112 132 135 255
-55.0871 8.26306 793 72 61 79 255
-52.2007 8.24222 791 66 78 66 255
-49.5784 8.26306 793 61 78 74 255
-46.9421 8.2839 795 48 62 51 255
-44.5698 8.35684 802 60 41 85 255
-66.688 11.1147 800 145 157 161 255
-63.7496 11.0869 798 137 142 141 255
-60.9014 11.073 797 134 133 158 255
-57.9873 11.0452 795 112 131 150 255
-55.0871 11.0174 793 70 35 60 255
-52.3327 11.0174 793 56 65 56 255
-49.5784 11.0174 793 64 80 84 255
-47.1192 11.0869 798 72 83 95 255
-44.5698 11.1425 802 47 42 51 255
-60.9014 13.8412 797 151 159 168 255
-57.9873 13.8065 795 150 137 165 255
-55.226 13.8065 795 112 108 76 255
-52.3327 13.7718 793 51 53 48 255
-49.7034 13.8065 795 48 54 84 255
-47.1192 13.8586 798 71 71 100 255
-44.4587 13.8933 800 60 54 59 255
-41.8884 13.9628 804 71 76 125 255
-61.1307 16.672 800 173 210 198 255
-58.2061 16.6303 798 171 174 192 255
-55.3649 16.6095 797 125 146 107 255
-52.4647 16.5678 795 78 74 62 255
-49.7034 16.5678 795 63 51 66 255
-47.1192 16.6303 798 58 50 41 255
-44.4587 16.672 800 57 67 70 255
-41.8884 16.7554 804 58 51 76 255
-61.2835 19.4993 802 161 177 226 255
-58.352 19.4507 800 208 245 230 255
-55.4344 19.402 798 141 136 134 255
-52.6627 19.402 798 85 77 59 255
-49.8284 19.3777 797 83 80 62 255
-47.1192 19.402 798 54 46 31 255
-44.5698 19.4993 802 47 73 56 255
-41.8884 19.5479 804 55 66 54 255
-38.9986 19.4993 802 92 98 130 255
-58.4979 22.2849 802 205 254 252 255
-55.5733 22.2293 800 189 191 196 255
-52.7947 22.2293 800 115 103 44 255
-49.891 22.1738 798 80 67 74 255
-47.1192 22.1738 798 76 60 68 255
-44.4587 22.2293 800 70 71 66 255
-41.7842 22.2849 802 66 67 61 255
-38.9013 22.2293 800 76 99 92 255
-58.7896 25.1956 806 174 242 254 255
-55.8512 25.133 804 206 222 234 255
-53.0586 25.133 804 165 159 94 255
-50.016 25.008 800 111 84 86 255
-47.3554 25.0705 802 78 69 80 255
-44.5698 25.0705 802 72 76 76 255
-41.8884 25.133 804 69 68 79 255
-38.9986 25.0705 802 67 62 62 255
358.427 25.6019 819 182 203 228 255
361.272 25.6019 819 173 188 246 255
364.116 25.6019 819 165 187 230 255
365.169 25.4769 815 163 193 237 255
-55.9901 27.9951 806 170 213 242 255
-53.0586 27.9256 804 132 132 141 255
-50.2661 27.9256 804 89 84 99 255
-47.3554 27.8561 802 82 78 89 255
-44.681 27.9256 804 70 65 80 255
-41.8884 27.9256 804 65 78 75 255
-39.1931 27.9951 806 67 80 74 255
-36.3936 27.9951 806 80 89 102 255
364.116 28.4466 819 167 198 191 255
365.169 28.3077 815 173 204 224 255
368.903 28.3771 817 182 209 231 255
-56.1291 30.871 808 150 196 216 255
-53.3226 30.871 808 133 141 123 255
-50.3911 30.7946 806 97 88 112 255
-47.5916 30.7946 806 89 85 103 255
-44.7921 30.7946 806 74 65 84 255
-41.8884 30.7182 804 59 27 72 255
-39.1931 30.7946 806 63 79 68 255
-36.3936 30.7946 806 68 73 60 255
365.169 31.1384 815 99 108 158 255
-56.5459 33.9275 814 120 128 147 255
-53.4546 33.7608 810 110 117 129 255
-50.5162 33.6774 808 101 91 123 255
-47.5916 33.5941 806 94 83 116 255
-44.7921 33.5941 806 85 86 92 255
-42.0968 33.6774 808 54 59 68 255
-39.3876 33.7608 810 46 71 61 255
-36.4839 33.6774 808 65 88 58 255
-33.7608 33.7608 810 82 92 115 255
-53.4546 36.5742 810 118 132 140 255
-50.5162 36.4839 808 112 116 128 255
-47.5916 36.3936 806 102 114 114 255
-44.9033 36.4839 808 92 93 99 255
-42.3052 36.6645 812 74 67 73 255
-39.4849 36.6645 812 57 33 46 255
-36.5742 36.5742 810 61 67 73 255
-33.9275 36.7548 814 72 86 72 255
-31.1002 36.7548 814 101 108 130 255
-53.7186 39.5821 814 130 142 124 255
-50.7662 39.4849 812 122 114 120 255
-47.9459 39.4849 812 104 108 116 255
-45.0144 39.3876 810 100 107 98 255
-42.4094 39.5821 814 84 69 98 255
-39.5821 39.5821 814 63 56 59 255
-36.6645 39.4849 812 57 52 84 255
-33.9275 39.5821 814 68 87 72 255
-31.1002 39.5821 814 69 80 92 255
-53.7846 42.4615 815 119 146 116 255
-51.0788 42.5657 817 118 135 137 255
-48.123 42.4615 815 107 96 120 255
-45.2367 42.4094 814 98 100 109 255
-42.4094 42.4094 814 84 80 110 255
-39.5821 42.4094 814 63 47 92 255
-36.7548 42.4094 814 47 47 78 255
-33.9275 42.4094 814 50 53 58 255
-31.1384 42.4615 815 51 39 82 255
-45.2367 45.2367 814 98 99 121 255
-42.4094 45.2367 814 88 86 116 255
-39.5821 45.2367 814 69 67 102 255
-36.7548 45.2367 814 51 46 60 255
-33.9275 45.2367 814 49 42 40 255
-31.1002 45.2367 814 61 78 72 255
-45.4034 48.2411 817 129 119 131 255
-42.4094 48.064 814 93 100 123 255
-39.5821 48.064 814 82 79 98 255
-36.7548 48.064 814 59 27 60 255
-33.9275 48.064 814 32 26 41 255
-31.1384 48.123 815 39 66 62 255
-28.4466 48.3592 819 70 71 86 255
-45.5146 51.2039 819 155 172 168 255
-42.6699 51.2039 819 114 118 134 255
-39.6307 50.9538 815 88 84 88 255
-36.7548 50.8913 814 71 64 76 255
-33.9692 50.9538 815 48 40 60 255
-31.2148 51.0788 817 45 27 34 255
-28.5161 51.3289 821 59 62 81 255
-25.727 51.454 823 71 73 77 255
-22.924 51.579 825 69 65 114 255
-45.6257 54.1805 821 166 230 205 255
-42.7741 54.1805 821 133 124 149 255
-39.8252 54.0485 819 94 95 101 255
-36.8903 53.9166 817 75 68 79 255
-34.1359 54.0485 819 42 30 73 255
-31.3677 54.1805 821 37 38 34 255
-28.5855 54.3125 823 56 47 82 255
-25.727 54.3125 823 70 70 83 255
-22.924 54.4445 825 70 79 81 255
-42.7741 57.0321 821 160 173 167 255
-39.9225 57.0321 821 111 109 127 255
-37.0709 57.0321 821 106 104 102 255
-34.2193 57.0321 821 80 70 46 255
-31.3677 57.0321 821 64 90 75 255
-28.5855 57.1711 823 77 88 84 255
-25.727 57.1711 823 78 85 84 255
-22.924 57.31 825 71 83 78 255
-20.0585 57.31 825 95 94 129 255
-42.9825 60.1755 825 186 251 195 255
-40.0197 60.0296 823 162 153 145 255
-37.1612 60.0296 823 142 164 153 255
-34.3026 60.0296 823 121 125 100 255
-31.4441 60.0296 823 90 71 73 255
-28.5855 60.0296 823 84 83 99 255
-25.727 60.0296 823 83 86 91 255
-22.924 60.1755 825 71 85 86 255
-20.0585 60.1755 825 91 98 114 255
-17.2347 60.3214 827 146 176 162 255
-43.1909 63.3467 829 166 242 217 255
-40.3115 63.3467 829 166 170 194 255
-37.3418 63.1938 827 131 130 158 255
-34.4694 63.1938 827 118 144 184 255
-31.5205 63.041 825 97 109 95 255
-28.5855 62.8882 823 95 98 118 255
-25.727 62.8882 823 88 83 102 255
-22.9796 63.1938 827 75 83 93 255
-20.1071 63.1938 827 87 77 96 255
-17.2347 63.1938 827 135 155 157 255
-43.2951 66.3858 831 136 161 205 255
-40.3115 66.226 829 189 215 239 255
-37.3418 66.0663 827 183 177 176 255
-34.4694 66.0663 827 173 203 206 255
-31.5969 66.0663 827 150 161 146 255
-28.655 65.9065 825 109 117 128 255
-25.7895 65.9065 825 94 96 106 255
-22.9796 66.0663 827 81 76 100 255
-20.1558 66.226 829 98 79 113 255
-43.1909 69.1054 829 115 126 145 255
-40.3115 69.1054 829 155 196 207 255
-37.4321 69.1054 829 160 160 188 255
-34.5527 69.1054 829 172 205 220 255
-31.5969 68.9387 827 187 211 209 255
-28.7245 68.9387 827 145 150 136 255
-25.852 68.9387 827 109 115 106 255
-22.924 68.772 825 124 132 102 255
-20.1558 69.1054 829 134 122 117 255
-40.4088 72.1585 831 121 132 170 255
-37.4321 71.9848 829 126 139 166 255
-34.5527 71.9848 829 155 164 179 255
-31.5969 71.8112 827 168 189 203 255
-28.7245 71.8112 827 146 167 144 255
-25.852 71.8112 827 125 116 118 255
-22.9796 71.8112 827 135 138 105 255
-20.1558 71.9848 829 142 143 112 255
-34.6361 75.0448 831 165 164 166 255
-31.6733 74.8642 829 160 166 153 255
-28.7245 74.6836 827 145 148 143 255
-25.852 74.6836 827 133 138 130 255
-22.9796 74.6836 827 141 148 120 255
