ply
format ascii 1.0
element vertex 718
property float x
property float y
property float z
property uchar red
property uchar green
property uchar blue
property uchar alpha
end_header
-131.118 -102.272 755 231 254 249 255
-128.666 -102.408 756 192 177 112 255
-125.874 -102.272 755 140 105 106 255
-123.251 -102.272 755 128 163 141 255
-134.272 -100.046 758 155 153 186 255
-131.118 -99.6499 755 184 220 234 255
-128.496 -99.6499 755 161 160 176 255
-125.54 -99.386 753 116 140 104 255
-122.761 -99.254 752 89 92 88 255
-120.15 -99.254 752 60 51 56 255
-117.538 -99.254 752 31 18 38 255
-130.771 -96.7705 753 179 253 218 255
-127.985 -96.642 752 182 204 186 255
-125.04 -96.385 750 124 99 135 255
-122.435 -96.385 750 75 53 62 255
-119.83 -96.385 750 48 17 78 255
-117.225 -96.385 750 27 33 24 255
-114.62 -96.385 750 22 29 44 255
-127.645 -93.78 750 175 187 216 255
-124.707 -93.5299 748 129 145 139 255
-122.109 -93.5299 748 105 119 119 255
-119.51 -93.5299 748 79 92 69 255
-117.225 -93.78 750 52 39 50 255
-114.926 -94.0301 752 45 43 51 255
-112.314 -94.0301 752 33 41 43 255
-127.645 -91.175 750 137 145 202 255
-124.707 -90.9319 748 136 156 145 255
-122.109 -90.9319 748 109 112 140 255
-119.51 -90.9319 748 90 99 97 255
-117.225 -91.175 750 65 61 27 255
-114.62 -91.175 750 48 55 68 255
-112.314 -91.4181 752 50 47 61 255
-109.702 -91.4181 752 26 40 24 255
-107.517 -91.7828 755 35 58 74 255
-127.305 -88.3338 748 143 164 169 255
-125.04 -88.57 750 158 176 192 255
-122.109 -88.3338 748 151 170 157 255
-119.51 -88.3338 748 121 141 137 255
-116.912 -88.3338 748 110 129 80 255
-114.62 -88.57 750 80 73 51 255
-112.015 -88.57 750 50 51 37 255
-109.702 -88.8062 752 50 53 22 255
-107.232 -88.9243 753 23 47 19 255
-125.04 -85.965 750 153 157 178 255
-122.435 -85.965 750 168 220 224 255
-119.83 -85.965 750 150 151 157 255
-117.225 -85.965 750 120 125 138 255
-114.62 -85.965 750 118 139 86 255
-112.015 -85.965 750 91 83 60 255
-109.702 -86.1942 752 59 59 1 255
-107.232 -86.3089 753 46 50 41 255
-104.895 -86.5381 755 38 19 13 255
-120.15 -83.5823 752 179 247 217 255
-117.225 -83.36 750 143 155 173 255
-114.62 -83.36 750 104 107 140 255
-112.314 -83.5823 752 97 123 111 255
-109.702 -83.5823 752 78 86 67 255
-107.232 -83.6934 753 57 41 54 255
-104.895 -83.9157 755 46 44 30 255
-102.408 -84.0269 756 32 38 32 255
-99.7819 -84.0269 756 14 27 67 255
-97.0276 -83.9157 755 66 117 113 255
-117.538 -80.9703 752 168 206 232 255
-115.078 -81.078 753 132 135 147 255
-112.314 -80.9703 752 95 91 110 255
-109.848 -81.078 753 90 105 125 255
-107.232 -81.078 753 71 74 94 255
-104.895 -81.2934 755 51 34 52 255
-102.272 -81.2934 755 49 50 49 255
-99.7819 -81.401 756 49 35 35 255
-97.1561 -81.401 756 27 35 70 255
-94.5302 -81.401 756 74 131 156 255
-115.384 -78.671 755 161 186 183 255
-112.463 -78.4626 753 133 128 106 255
-109.848 -78.4626 753 91 101 100 255
-107.232 -78.4626 753 71 81 115 255
-104.617 -78.4626 753 57 53 70 255
-102.272 -78.671 755 45 35 33 255
-99.7819 -78.7752 756 42 36 58 255
-97.1561 -78.7752 756 34 33 67 255
-94.5302 -78.7752 756 15 20 77 255
-112.911 -76.1494 756 163 209 169 255
-110.139 -76.0486 755 117 101 117 255
-106.378 -75.2428 747 76 64 57 255
-103.783 -75.2428 747 74 79 83 255
-101.324 -75.3435 748 57 33 48 255
-99.386 -75.8472 753 42 40 54 255
-97.1561 -76.1494 756 33 34 51 255
-94.5302 -76.1494 756 28 15 35 255
-91.9044 -76.1494 756 15 17 67 255
-107.368 -71.5785 736 159 201 197 255
-104.954 -71.6757 737 118 114 77 255
-102.672 -71.8702 739 67 58 59 255
-100.24 -71.9675 740 58 61 86 255
-99.386 -73.2318 753 43 36 47 255
-97.0276 -73.4263 755 21 24 51 255
-94.5302 -73.5235 756 15 17 45 255
-91.9044 -73.5235 756 23 11 25 255
-89.7509 -73.9125 760 25 39 70 255
-104.811 -69.0221 736 149 175 157 255
-102.394 -69.1159 737 130 129 101 255
-100.105 -69.3034 739 83 99 95 255
-98.726 -70.1474 748 46 22 52 255
-97.0276 -70.8039 755 24 17 46 255
-94.5302 -70.8977 756 16 11 21 255
-92.1475 -71.0852 758 18 14 33 255
-89.869 -71.3666 761 11 16 20 255
-99.386 -68.0009 753 63 59 55 255
-97.0276 -68.1815 755 36 27 62 255
-94.5302 -68.2718 756 29 13 25 255
-92.1475 -68.4525 758 21 21 35 255
-89.869 -68.7234 761 20 20 21 255
-87.2258 -68.7234 761 13 7 26 255
-102.408 -65.646 756 108 127 139 255
-99.7819 -65.646 756 72 62 66 255
-97.1561 -65.646 756 53 64 64 255
-94.7803 -65.8197 758 42 55 53 255
-92.5122 -66.0802 761 43 62 39 255
-89.869 -66.0802 761 46 30 11 255
-87.2258 -66.0802 761 41 35 44 255
-84.8049 -66.2538 763 18 21 1 255
-82.1548 -66.2538 763 53 56 105 255
-100.31 -63.3536 760 123 137 118 255
-97.6701 -63.3536 760 97 94 104 255
-95.1554 -63.437 761 92 99 100 255
-92.5122 -63.437 761 92 115 90 255
-89.869 -63.437 761 79 84 64 255
-87.2258 -63.437 761 63 44 23 255
-84.8049 -63.6037 763 50 52 26 255
-82.1548 -63.6037 763 29 28 62 255
-98.0557 -60.9535 763 127 135 150 255
-95.4055 -60.9535 763 117 135 156 255
-92.7554 -60.9535 763 122 129 148 255
-89.869 -60.7938 761 124 140 130 255
-87.2258 -60.7938 761 90 97 45 255
-84.8049 -60.9535 763 52 59 46 255
-82.3701 -61.1133 765 49 59 81 255
-80.0256 -61.353 768 38 33 90 255
-98.3127 -58.4562 765 134 137 128 255
-95.4055 -58.3034 763 131 155 169 255
-92.7554 -58.3034 763 126 143 165 255
-90.1052 -58.3034 763 125 143 164 255
-87.4551 -58.3034 763 125 146 123 255
-84.8049 -58.3034 763 101 81 63 255
-82.3701 -58.4562 765 65 62 39 255
-79.9214 -58.609 767 51 70 49 255
-77.5595 -58.8383 770 42 64 71 255
-95.4055 -55.6532 763 138 146 157 255
-92.9985 -55.7991 765 156 176 190 255
-90.5776 -55.945 767 146 172 184 255
-87.6843 -55.7991 765 135 157 186 255
-85.0272 -55.7991 765 127 119 115 255
-82.3701 -55.7991 765 82 86 43 255
-79.9214 -55.945 767 32 47 3 255
-77.5595 -56.1638 770 39 60 83 255
-74.8851 -56.1638 770 45 60 59 255
-90.6957 -53.3504 768 160 176 178 255
-88.0282 -53.3504 768 156 179 203 255
-85.2495 -53.2809 767 161 181 183 255
-82.5854 -53.2809 767 146 158 131 255
-79.713 -53.142 765 103 98 62 255
-77.3581 -53.3504 768 54 33 39 255
-74.8851 -53.4893 770 39 52 79 255
-85.2495 -50.6169 767 159 193 219 255
-82.6931 -50.6829 768 161 179 195 255
-79.9214 -50.6169 767 148 148 149 255
-77.5595 -50.8149 770 107 100 51 255
-74.8851 -50.8149 770 58 10 43 255
-72.3982 -50.9469 772 30 28 80 255
-85.5829 -48.1404 770 162 178 198 255
-82.9085 -48.1404 770 156 180 188 255
-80.234 -48.1404 770 156 182 203 255
-77.5595 -48.1404 770 137 144 109 255
-74.8851 -48.1404 770 92 88 53 255
-72.3982 -48.2654 772 58 29 64 255
-69.8071 -48.328 773 50 27 38 255
-67.2958 -48.453 775 43 67 74 255
-64.7707 -48.578 777 91 128 143 255
-83.4468 -45.7612 775 168 171 167 255
-80.234 -45.4659 770 154 157 189 255
-77.761 -45.584 772 143 180 146 255
-75.0796 -45.584 772 98 84 114 255
-72.4919 -45.6431 773 63 59 66 255
-69.9877 -45.7612 775 54 44 39 255
-67.2958 -45.7612 775 33 30 59 255
-64.604 -45.7612 775 42 72 101 255
-62.0719 -45.8793 777 106 152 169 255
-80.234 -42.7915 770 140 135 142 255
-77.761 -42.9026 772 114 115 157 255
-75.0796 -42.9026 772 79 93 135 255
-72.4919 -42.9582 773 58 24 40 255
-69.9877 -43.0693 775 57 46 68 255
-67.2958 -43.0693 775 48 49 74 255
-64.7707 -43.1805 777 47 49 44 255
-62.0719 -43.1805 777 45 64 84 255
-59.2203 -43.0693 775 100 149 160 255
-77.761 -40.2212 772 157 172 165 255
-75.0796 -40.2212 772 162 196 183 255
-72.4919 -40.2733 773 116 109 60 255
-69.9877 -40.3775 775 48 44 36 255
-67.2958 -40.3775 775 41 51 72 255
-64.7707 -40.4817 777 50 64 34 255
-62.0719 -40.4817 777 47 68 46 255
-59.3732 -40.4817 777 57 68 90 255
-77.8617 -37.5884 773 150 169 188 255
-75.1768 -37.5884 773 152 167 208 255
-72.4919 -37.5884 773 172 218 173 255
-69.9877 -37.6857 775 131 110 77 255
-67.2958 -37.6857 775 62 53 53 255
-64.604 -37.6857 775 36 55 42 255
-62.0719 -37.7829 777 43 72 64 255
-59.3732 -37.7829 777 55 70 65 255
-57.0391 -38.0261 782 83 90 125 255
-75.3713 -34.9938 775 155 157 191 255
-72.8671 -35.0841 777 169 198 221 255
-70.1683 -35.0841 777 158 169 170 255
-67.4695 -35.0841 777 95 100 55 255
-64.7707 -35.0841 777 50 31 31 255
-62.0719 -35.0841 777 45 50 57 255
-59.3732 -35.0841 777 46 60 68 255
-57.0391 -35.3099 782 53 61 89 255
-73.336 -32.5938 782 162 168 190 255
-70.4392 -32.5104 780 143 149 169 255
-67.6432 -32.4687 779 107 118 89 255
-64.9374 -32.4687 779 72 84 80 255
-62.0719 -32.3854 777 49 54 31 255
-59.526 -32.4687 779 39 45 62 255
-56.8203 -32.4687 779 42 62 80 255
-54.7397 -32.8438 788 51 61 75 255
-70.6198 -29.8776 782 145 148 158 255
-67.73 -29.8012 780 113 84 90 255
-65.0208 -29.8012 780 108 119 114 255
-62.3116 -29.8012 780 82 89 43 255
-59.6024 -29.8012 780 49 42 50 255
-57.0391 -29.8776 782 49 27 39 255
-54.3229 -29.8776 782 57 76 59 255
-52.0687 -30.1451 789 55 77 87 255
-65.1875 -27.1615 782 111 108 81 255
-62.4714 -27.1615 782 119 134 115 255
-59.7552 -27.1615 782 84 80 64 255
-57.0391 -27.1615 782 37 39 1 255
-54.3229 -27.1615 782 42 50 53 255
-51.8708 -27.3004 786 58 67 71 255
-49.3283 -27.4046 789 64 51 98 255
-65.6877 -24.6329 788 132 124 79 255
-62.7909 -24.5704 786 106 122 148 255
-59.9081 -24.5078 784 115 139 117 255
-57.185 -24.5078 784 79 78 42 255
-54.4619 -24.5078 784 44 45 46 255
-51.8708 -24.5704 786 51 51 40 255
-49.3283 -24.6641 789 43 50 59 255
-46.5878 -24.6641 789 74 58 136 255
-63.0306 -21.9237 789 120 95 129 255
-60.0609 -21.8403 786 107 111 129 255
-57.3308 -21.8403 786 115 122 105 255
-54.6008 -21.8403 786 78 57 45 255
-51.8708 -21.8403 786 45 55 36 255
-49.1407 -21.8403 786 44 54 69 255
-46.4107 -21.8403 786 33 45 71 255
-63.3501 -19.2805 793 127 151 116 255
-60.2901 -19.1832 789 88 81 107 255
-57.5497 -19.1832 789 89 109 116 255
-54.6008 -19.1103 786 91 112 71 255
-51.8708 -19.1103 786 74 78 71 255
-49.2658 -19.1589 788 58 47 66 255
-46.5288 -19.1589 788 46 45 45 255
-43.8474 -19.1832 789 30 14 93 255
-60.2901 -16.4428 789 117 99 121 255
-57.4767 -16.4219 788 96 105 103 255
-54.7397 -16.4219 788 91 110 91 255
-52.0027 -16.4219 788 75 79 93 255
-49.3283 -16.4428 789 58 58 78 255
-46.5878 -16.4428 789 49 41 29 255
-43.8474 -16.4428 789 47 45 56 255
-41.2111 -16.4844 791 61 65 74 255
-60.2901 -13.7023 789 118 135 146 255
-57.5497 -13.7023 789 95 87 113 255
-54.7397 -13.6849 788 81 82 94 255
-52.0687 -13.7023 789 64 54 87 255
-49.3283 -13.7023 789 45 26 76 255
-46.7059 -13.737 791 37 36 28 255
-43.9585 -13.737 791 30 28 55 255
-41.2111 -13.737 791 18 25 34 255
-38.4637 -13.737 791 32 44 94 255
-60.2901 -10.9618 789 94 108 142 255
-57.5497 -10.9618 789 98 107 127 255
-54.8092 -10.9618 789 109 131 119 255
-52.0687 -10.9618 789 102 104 101 255
-49.3283 -10.9618 789 73 84 81 255
-46.5878 -10.9618 789 53 38 64 255
-43.9585 -10.9896 791 30 36 54 255
-41.3153 -11.0174 793 23 43 53 255
-38.5609 -11.0174 793 32 46 37 255
-63.0306 -8.22138 789 84 102 117 255
-60.2901 -8.22138 789 92 105 112 255
-57.5497 -8.22138 789 93 105 107 255
-54.8092 -8.22138 789 88 80 110 255
-52.0687 -8.22138 789 79 89 96 255
-49.3283 -8.22138 789 68 74 81 255
-46.5878 -8.22138 789 55 52 76 255
-43.9585 -8.24222 791 42 41 60 255
-41.3153 -8.26306 793 37 38 49 255
-38.6582 -8.2839 795 38 45 31 255
-35.8969 -8.2839 795 27 33 31 255
-114.62 -5.21 750 102 109 115 255
-81.6928 -5.44619 784 118 126 114 255
-78.9697 -5.44619 784 99 123 111 255
-76.0521 -5.43229 782 74 91 126 255
-73.336 -5.43229 782 45 48 123 255
-71.1617 -5.47397 788 21 17 76 255
-62.9507 -5.47397 788 57 54 75 255
-60.2901 -5.48092 789 50 45 65 255
-57.5497 -5.48092 789 39 35 69 255
-54.8092 -5.48092 789 45 53 72 255
-52.0027 -5.47397 788 53 53 67 255
-49.3283 -5.48092 789 53 50 75 255
-46.5878 -5.48092 789 52 43 76 255
-43.8474 -5.48092 789 52 39 64 255
-41.2111 -5.49481 791 47 26 48 255
-38.5609 -5.50871 793 40 37 28 255
-35.8969 -5.5226 795 27 39 62 255
-33.219 -5.53649 797 12 22 47 255
-30.4507 -5.53649 797 43 56 106 255
-119.51 -2.59805 748 54 55 109 255
-117.694 -2.61542 753 61 60 104 255
-114.926 -2.61195 752 58 64 87 255
-112.762 -2.62237 755 40 39 83 255
-110.285 -2.62584 756 32 29 91 255
-81.4844 -2.71615 782 72 86 81 255
-78.7682 -2.71615 782 73 82 91 255
-76.0521 -2.71615 782 70 68 81 255
-73.336 -2.71615 782 58 64 57 255
-71.1617 -2.73699 788 35 41 63 255
-68.251 -2.73004 786 31 39 50 255
-65.521 -2.73004 786 46 53 54 255
-62.9507 -2.73699 788 53 69 45 255
-60.2137 -2.73699 788 51 55 48 255
-57.5497 -2.74046 789 48 51 48 255
-54.8092 -2.74046 789 49 53 70 255
-52.0027 -2.73699 788 53 50 58 255
-49.3283 -2.74046 789 66 68 80 255
-46.5878 -2.74046 789 76 70 86 255
-43.8474 -2.74046 789 77 67 77 255
-41.2111 -2.74741 791 73 84 54 255
-38.5609 -2.75435 793 60 59 72 255
-35.8969 -2.7613 795 51 51 67 255
-33.219 -2.76825 797 56 59 73 255
-30.4889 -2.77172 798 64 57 58 255
-27.7867 -2.77867 800 53 34 94 255
-124.707 0 748 142 166 174 255
-121.945 0 747 88 49 86 255
-119.351 0 747 63 63 86 255
-116.912 0 748 68 70 63 255
-114.62 0 750 50 49 52 255
-112.463 0 753 21 17 48 255
-110.139 0 755 15 15 54 255
-107.517 0 755 39 41 70 255
-105.311 0 758 53 62 83 255
-103.356 0 763 51 34 57 255
-100.97 0 765 45 27 45 255
-98.6982 0 768 44 38 77 255
-96.2808 0 770 46 42 75 255
-93.971 0 773 37 45 67 255
-91.2861 0 773 29 44 50 255
-88.8305 0 775 42 43 57 255
-86.5833 0 779 60 65 71 255
-83.8775 0 779 65 67 64 255
-81.4844 0 782 62 56 55 255
-78.7682 0 782 59 65 72 255
-76.2466 0 784 54 60 74 255
-73.336 0 782 50 55 57 255
-70.8004 0 784 43 46 46 255
-68.0773 0 784 35 38 24 255
-65.3542 0 784 38 46 38 255
-62.9507 0 788 41 47 36 255
-60.2901 0 789 33 46 58 255
-57.6955 0 791 38 47 59 255
-54.9481 0 791 45 57 74 255
-52.0687 0 789 53 61 71 255
-49.3283 0 789 77 101 83 255
-46.5878 0 789 88 100 89 255
-43.9585 0 791 88 107 81 255
-41.2111 0 791 76 77 60 255
-38.5609 0 793 55 49 88 255
-35.8969 0 795 43 53 58 255
-33.219 0 797 53 67 47 255
-30.4889 0 798 66 85 58 255
-27.7172 0 798 63 69 69 255
-25.0705 0 802 49 49 93 255
-22.2849 0 802 71 89 89 255
-19.5479 0 804 136 163 178 255
-127.134 2.59458 747 153 149 192 255
-124.707 2.59805 748 166 168 184 255
-122.109 2.59805 748 141 137 111 255
-119.351 2.59458 747 108 109 89 255
-116.756 2.59458 747 72 85 58 255
-114.314 2.59805 748 46 30 61 255
-112.015 2.605 750 31 21 40 255
-109.702 2.61195 752 21 26 20 255
-107.232 2.61542 753 23 27 51 255
-105.034 2.62584 756 25 26 62 255
-103.085 2.64321 761 25 17 56 255
-101.234 2.66405 767 25 19 34 255
-98.9553 2.67447 770 25 21 35 255
-96.2808 2.67447 770 32 30 44 255
-93.8495 2.68141 772 35 35 42 255
-91.2861 2.68489 773 27 33 21 255
-88.8305 2.69183 775 32 25 37 255
-86.361 2.69878 777 44 48 29 255
-83.8775 2.70573 779 50 67 37 255
-81.276 2.7092 780 52 65 54 255
-78.7682 2.71615 782 56 67 67 255
-76.0521 2.71615 782 62 66 58 255
-73.336 2.71615 782 58 64 55 255
-70.8004 2.72309 784 49 61 37 255
-68.0773 2.72309 784 42 41 22 255
-65.3542 2.72309 784 44 56 38 255
-62.9507 2.73699 788 43 53 36 255
-60.2901 2.74046 789 48 55 74 255
-57.6955 2.74741 791 57 75 52 255
-54.9481 2.74741 791 59 64 66 255
-52.2007 2.74741 791 68 72 94 255
-49.4533 2.74741 791 82 98 88 255
-46.7059 2.74741 791 90 104 92 255
-43.9585 2.74741 791 98 104 84 255
-41.2111 2.74741 791 92 100 71 255
-38.5609 2.75435 793 62 34 65 255
-35.8969 2.7613 795 45 44 23 255
-33.219 2.76825 797 46 47 14 255
-30.4507 2.76825 797 49 42 43 255
-27.7172 2.77172 798 55 56 59 255
-25.008 2.77867 800 61 68 50 255
-22.3405 2.79256 804 58 62 41 255
-19.5479 2.79256 804 73 80 112 255
-16.7554 2.79256 804 119 135 149 255
-127.305 5.19611 748 154 167 164 255
-125.04 5.21 750 150 160 169 255
-122.109 5.19611 748 131 147 134 255
-119.031 5.17527 745 106 106 114 255
-116.443 5.17527 745 81 71 65 255
-113.856 5.17527 745 70 65 55 255
-111.716 5.19611 748 45 14 46 255
-109.848 5.23084 753 18 19 12 255
-107.517 5.24473 755 11 17 43 255
-105.034 5.25168 756 16 20 53 255
-102.95 5.27947 760 24 11 36 255
-100.97 5.3142 765 26 21 12 255
-98.6982 5.33504 768 20 19 11 255
-96.2808 5.34893 770 22 28 47 255
-93.6063 5.34893 770 35 44 36 255
-91.1681 5.36283 772 41 49 36 255
-88.8305 5.38367 775 47 44 31 255
-86.361 5.39756 777 41 42 21 255
-83.6622 5.39756 777 43 61 43 255
-81.276 5.4184 780 63 77 62 255
-78.7682 5.43229 782 79 85 95 255
-76.0521 5.43229 782 79 76 56 255
-73.5235 5.44619 784 62 62 55 255
-70.8004 5.44619 784 34 36 41 255
-68.0773 5.44619 784 19 28 41 255
-65.521 5.46008 786 35 38 57 255
-63.0306 5.48092 789 56 69 75 255
-60.2901 5.48092 789 71 86 79 255
-57.6955 5.49481 791 65 86 72 255
-55.0871 5.50871 793 61 64 96 255
-52.3327 5.50871 793 71 90 99 255
-49.7034 5.5226 795 78 90 96 255
-46.9421 5.5226 795 71 78 92 255
-44.1808 5.5226 795 72 85 102 255
-41.4195 5.5226 795 87 92 97 255
-38.6582 5.5226 795 85 90 79 255
-35.9872 5.53649 797 67 47 31 255
-33.219 5.53649 797 54 40 49 255
-30.4889 5.54344 798 50 43 61 255
-27.7172 5.54344 798 37 42 54 255
-25.0705 5.57123 802 38 50 33 255
-22.2849 5.57123 802 54 46 70 255
-19.5479 5.58512 804 60 60 69 255
-16.7554 5.58512 804 64 69 100 255
-13.9628 5.58512 804 93 104 118 255
-125.04 7.815 750 131 140 162 255
-122.109 7.79416 748 124 140 142 255
-119.351 7.78374 747 109 107 121 255
-116.756 7.78374 747 96 106 99 255
-114.162 7.78374 747 88 101 78 255
-112.015 7.815 750 81 86 82 255
-109.848 7.84626 753 71 83 79 255
-107.659 7.87752 756 46 53 66 255
-105.728 7.92962 761 23 7 57 255
-103.356 7.95046 763 19 14 22 255
-100.97 7.9713 765 23 14 7 255
-98.5697 7.99214 767 28 16 12 255
-96.0307 8.00256 768 26 24 46 255
-93.6063 8.0234 770 33 44 45 255
-91.2861 8.05466 773 45 44 52 255
-88.6013 8.05466 773 45 36 36 255
-86.1387 8.0755 775 43 30 34 255
-83.6622 8.09634 777 36 42 47 255
-81.4844 8.14844 782 27 50 60 255
-78.7682 8.14844 782 30 53 93 255
-76.2466 8.16928 784 37 34 58 255
-73.5235 8.16928 784 41 42 58 255
-70.8004 8.16928 784 64 46 75 255
-68.4247 8.21096 788 92 92 62 255
-65.521 8.19012 786 110 115 93 255
-63.0306 8.22138 789 125 121 113 255
-60.2901 8.22138 789 132 113 102 255
-57.6955 8.24222 791 130 127 121 255
-54.9481 8.24222 791 131 128 124 255
-52.5967 8.30474 797 132 128 111 255
-49.891 8.31516 798 135 148 130 255
-47.0602 8.30474 797 133 118 110 255
-44.3475 8.31516 798 118 113 117 255
-41.5237 8.30474 797 104 115 134 255
-38.7555 8.30474 797 105 89 125 255
-35.9872 8.30474 797 107 109 104 255
-33.219 8.30474 797 79 74 86 255
-30.4889 8.31516 798 60 62 78 255
-27.7867 8.336 800 62 53 50 255
-25.0705 8.35684 802 60 54 33 255
-22.2849 8.35684 802 64 64 69 255
-19.5479 8.37768 804 66 77 76 255
-16.797 8.39852 806 66 77 81 255
-13.9975 8.39852 806 70 74 80 255
-11.2536 8.4402 810 72 92 118 255
-125.04 10.42 750 126 139 146 255
-122.435 10.42 750 129 157 145 255
-119.83 10.42 750 118 100 98 255
-117.225 10.42 750 112 126 115 255
-114.926 10.4478 752 115 126 114 255
-112.314 10.4478 752 120 122 131 255
-109.848 10.4617 753 123 121 125 255
-108.229 10.5589 760 118 124 105 255
-105.728 10.5728 761 104 99 76 255
-103.356 10.6006 763 85 80 32 255
-101.234 10.6562 767 73 59 28 255
-98.6982 10.6701 768 64 63 32 255
-96.0307 10.6701 768 63 76 62 255
-93.3632 10.6701 768 56 36 65 255
-91.2861 10.7395 773 43 25 49 255
-88.8305 10.7673 775 45 62 48 255
-86.361 10.7951 777 58 78 63 255
-83.8775 10.8229 779 78 99 73 255
-81.6928 10.8924 784 94 88 62 255
-78.9697 10.8924 784 118 116 101 255
-76.2466 10.8924 784 140 143 92 255
-68.4247 10.9479 788 154 152 108 255
-65.6877 10.9479 788 148 139 119 255
-47.1192 11.0869 798 149 159 132 255
-44.5698 11.1425 802 163 172 158 255
-41.5758 11.0869 798 163 177 175 255
-38.8041 11.0869 798 153 144 158 255
-36.0324 11.0869 798 146 159 153 255
-33.2606 11.0869 798 121 97 103 255
-30.4889 11.0869 798 75 54 40 255
-27.7867 11.1147 800 54 44 59 255
-25.0705 11.1425 802 57 50 52 255
-22.3405 11.1702 804 55 53 74 255
-19.5479 11.1702 804 43 49 75 255
-16.797 11.198 806 46 65 84 255
-13.9975 11.198 806 61 69 85 255
-11.2814 11.2814 812 67 73 80 255
-101.234 13.3202 767 139 171 102 255
-98.9553 13.3723 770 127 127 94 255
-96.6559 13.4244 773 120 109 119 255
-93.6063 13.3723 770 130 138 128 255
-88.8305 13.4592 775 160 167 112 255
-86.1387 13.4592 775 140 135 95 255
-44.7921 13.9975 806 157 164 158 255
-38.9986 13.9281 802 155 164 159 255
-36.1227 13.8933 800 166 184 187 255
-33.344 13.8933 800 179 188 174 255
-30.5653 13.8933 800 156 156 51 255
-27.8561 13.9281 802 120 127 104 255
-25.133 13.9628 804 83 81 68 255
-22.3405 13.9628 804 61 58 77 255
-19.5479 13.9628 804 59 62 69 255
-16.7554 13.9628 804 50 50 74 255
-13.9975 13.9975 806 49 54 36 255
-11.2814 14.1017 812 57 63 66 255
-8.48188 14.1365 814 72 72 85 255
-5.67543 14.1886 817 75 82 96 255
-2.83771 14.1886 817 69 74 115 255
-33.5107 16.7554 804 173 194 205 255
-30.7182 16.7554 804 168 186 148 255
-27.8561 16.7137 802 120 103 147 255
-25.133 16.7554 804 72 58 77 255
-22.3405 16.7554 804 65 71 81 255
-19.5479 16.7554 804 68 67 67 255
-16.797 16.797 806 63 59 70 255
-13.9975 16.797 806 54 51 24 255
-11.2814 16.9221 812 47 49 59 255
-8.48188 16.9638 814 36 49 69 255
-5.67543 17.0263 817 45 70 66 255
-2.83771 17.0263 817 60 68 70 255
-30.6417 19.4993 802 162 164 163 255
-27.9256 19.5479 804 140 151 151 255
-25.1956 19.5965 806 105 111 39 255
-22.3961 19.5965 806 79 70 95 255
-19.5965 19.5965 806 79 76 79 255
-16.8387 19.6452 808 77 76 77 255
-14.0323 19.6452 808 70 73 52 255
-11.2814 19.7424 812 57 50 56 255
-8.48188 19.7911 814 45 52 53 255
-5.66153 19.8154 815 43 42 46 255
-2.83077 19.8154 815 35 47 54 255
0 19.864 817 44 73 55 255
2.84466 19.9126 819 65 84 31 255
5.70321 19.9612 821 68 82 50 255
-27.9951 22.3961 806 157 159 151 255
-25.1956 22.3961 806 125 121 74 255
-22.4516 22.4516 808 90 71 86 255
-19.6938 22.5072 810 86 71 82 255
-16.8804 22.5072 810 83 79 73 255
-14.067 22.5072 810 76 76 60 255
-11.3092 22.6183 814 67 66 63 255
-8.48188 22.6183 814 56 61 59 255
-5.66153 22.6461 815 48 53 58 255
-2.83771 22.7017 817 42 36 47 255
0 22.7573 819 40 37 43 255
2.85161 22.8129 821 47 42 30 255
5.71711 22.8684 823 56 68 57 255
8.61734 22.9796 827 67 78 78 255
11.5454 23.0907 831 76 82 90 255
14.4317 23.0907 831 70 54 90 255
17.3597 23.1463 833 108 125 146 255
-25.2581 25.2581 808 154 159 135 255
-22.5628 25.3831 812 144 145 116 255
-19.7424 25.3831 812 108 91 101 255
-16.9221 25.3831 812 78 63 36 255
-14.1017 25.3831 812 78 76 59 255
-11.3092 25.4456 814 76 65 61 255
-8.48188 25.4456 814 68 71 74 255
-5.66153 25.4769 815 61 62 72 255
-2.83077 25.4769 815 51 51 52 255
0 25.5394 817 42 38 44 255
2.84466 25.6019 819 33 37 25 255
5.70321 25.6645 821 37 36 63 255
8.5965 25.7895 825 56 62 65 255
11.5176 25.9145 829 72 83 74 255
14.397 25.9145 829 82 82 73 255
17.318 25.9771 831 86 81 124 255
20.2044 25.9771 831 114 123 135 255
-19.7911 28.2729 814 162 151 132 255
-16.9638 28.2729 814 139 130 72 255
-14.1365 28.2729 814 98 71 76 255
-11.3231 28.3077 815 78 93 78 255
-8.4923 28.3077 815 72 77 80 255
-5.66153 28.3077 815 69 69 71 255
-2.83771 28.3771 817 66 62 75 255
0 28.4466 819 56 54 59 255
2.85161 28.5161 821 47 42 36 255
5.70321 28.5161 821 49 46 64 255
8.57566 28.5855 823 64 73 65 255
11.4898 28.7245 827 75 79 81 255
14.397 28.7939 829 77 79 88 255
17.2764 28.7939 829 78 81 106 255
20.2044 28.8634 831 79 60 89 255
-14.1886 31.2148 817 160 152 135 255
-11.3509 31.2148 817 134 140 129 255
-8.51314 31.2148 817 112 103 93 255
-5.68932 31.2913 819 91 81 55 255
-2.84466 31.2913 819 78 78 76 255
0 31.2913 819 69 72 70 255
2.85161 31.3677 821 59 82 59 255
5.70321 31.3677 821 63 69 56 255
8.57566 31.4441 823 70 70 76 255
11.462 31.5205 825 75 79 93 255
14.397 31.6733 829 78 80 91 255
17.2764 31.6733 829 70 88 95 255
20.2044 31.7497 831 71 67 74 255
23.0351 31.6733 829 116 133 141 255
-8.55482 34.2193 821 157 164 136 255
-5.70321 34.2193 821 137 148 115 255
-2.85161 34.2193 821 97 108 95 255
0 34.2193 821 87 75 99 255
2.85161 34.2193 821 102 113 96 255
5.71711 34.3026 823 95 115 84 255
8.57566 34.3026 823 79 60 90 255
11.462 34.386 825 76 95 95 255
14.397 34.5527 829 82 80 73 255
17.2764 34.5527 829 82 78 96 255
20.2044 34.6361 831 107 111 138 255
23.0351 34.5527 829 140 146 135 255
-2.85161 37.0709 821 164 169 164 255
0 37.1612 823 129 133 136 255
2.8655 37.2515 825 96 86 114 255
5.731 37.2515 825 99 110 124 255
8.5965 37.2515 825 110 130 119 255
11.462 37.2515 825 112 121 108 255
14.3622 37.3418 827 98 97 83 255
17.2764 37.4321 829 83 76 89 255
20.1558 37.4321 829 103 119 140 255
23.0351 37.4321 829 130 126 121 255
0 40.117 825 162 182 152 255
2.87245 40.2143 827 150 161 139 255
5.74489 40.2143 827 130 142 154 255
8.63818 40.3115 829 119 131 137 255
11.5176 40.3115 829 135 148 144 255
14.4317 40.4088 831 160 182 129 255
17.318 40.4088 831 143 144 111 255
20.2044 40.4088 831 122 89 83 255
23.0907 40.4088 831 115 121 120 255
2.87939 43.1909 829 145 155 153 255
5.74489 43.0867 827 134 156 162 255
8.63818 43.1909 829 115 125 138 255
11.5454 43.2951 831 118 131 136 255
14.397 43.1909 829 147 158 155 255
17.318 43.2951 831 167 173 150 255
20.2044 43.2951 831 153 149 109 255
5.77268 46.1814 831 128 127 135 255
8.65902 46.1814 831 105 94 118 255
11.5454 46.1814 831 111 117 109 255
14.397 46.0703 829 148 166 160 255
17.2764 46.0703 829 169 177 146 255
5.78657 49.1859 833 139 131 126 255
8.65902 49.0678 831 138 134 120 255
11.5454 49.0678 831 135 130 101 255
