ply
format ascii 1.0
element vertex 710
property float x
property float y
property float z
property uchar red
property uchar green
property uchar blue
property uchar alpha
end_header
-15.6717 -112.314 752 130 200 184 255
-13.1118 -112.762 755 153 155 177 255
-10.4617 -112.463 753 109 132 196 255
-15.63 -109.41 750 149 180 208 255
-13.1118 -110.139 755 116 108 126 255
-10.4895 -110.139 755 78 62 112 255
-7.9192 -110.869 760 60 53 79 255
-5.30031 -111.306 763 78 49 106 255
-2.6571 -111.598 765 130 140 106 255
-18.235 -106.805 750 190 204 206 255
-15.63 -106.805 750 170 193 202 255
-13.0771 -107.232 753 109 97 100 255
-10.4617 -107.232 753 77 67 67 255
-7.89836 -107.944 758 60 71 72 255
-5.27947 -108.229 760 87 99 138 255
-20.8956 -104.478 752 166 212 206 255
-18.235 -104.2 750 168 179 226 255
-15.63 -104.2 750 155 192 209 255
-13.0771 -104.617 753 121 113 87 255
-10.4617 -104.617 753 71 67 64 255
-7.87752 -105.034 756 49 56 63 255
-5.27947 -105.589 760 91 84 115 255
-18.235 -101.595 750 160 173 222 255
-15.63 -101.595 750 131 159 194 255
-13.0597 -101.866 752 87 93 96 255
-10.4478 -101.866 752 51 39 54 255
-7.8671 -102.272 755 54 54 58 255
-5.25168 -102.408 756 106 137 123 255
-2.63279 -102.679 758 141 137 127 255
-20.9234 -99.386 753 170 191 222 255
-18.2836 -99.254 752 156 180 223 255
-15.63 -98.99 750 131 138 155 255
-13.0597 -99.254 752 81 90 80 255
-10.4478 -99.254 752 52 39 28 255
-7.8671 -99.6499 755 78 85 56 255
-5.25168 -99.7819 756 127 136 136 255
-23.6013 -97.0276 755 180 206 254 255
-20.9789 -97.0276 755 159 178 209 255
-18.2836 -96.642 752 140 164 204 255
-15.63 -96.385 750 108 130 136 255
-13.0597 -96.642 752 72 70 60 255
-10.4617 -96.7705 753 46 51 30 255
-7.8671 -97.0276 755 89 98 75 255
-23.6326 -94.5302 756 169 170 228 255
-20.9234 -94.1551 753 161 189 233 255
-18.2836 -94.0301 752 138 135 170 255
-15.6717 -94.0301 752 99 130 138 255
-13.0771 -94.1551 753 76 69 48 255
-10.4617 -94.1551 753 59 45 56 255
-7.8671 -94.4052 755 109 139 91 255
-26.3279 -92.1475 758 171 212 205 255
-23.6326 -91.9044 756 153 135 200 255
-20.9789 -91.7828 755 150 210 236 255
-18.3079 -91.5397 753 129 124 149 255
-15.6717 -91.4181 752 88 102 113 255
-13.0771 -91.5397 753 63 41 25 255
-10.4895 -91.7828 755 72 54 59 255
-7.87752 -91.9044 756 114 112 102 255
-26.3279 -89.5147 758 151 164 188 255
-23.6326 -89.2786 756 127 139 197 255
-20.9789 -89.1605 755 139 163 201 255
-18.3566 -89.1605 755 122 111 122 255
-15.7342 -89.1605 755 85 88 81 255
-13.1118 -89.1605 755 61 52 19 255
-10.5034 -89.2786 756 83 91 90 255
-26.2584 -86.6527 756 146 134 185 255
-23.6326 -86.6527 756 127 161 188 255
-20.9789 -86.5381 755 115 152 151 255
-18.3079 -86.3089 753 86 102 91 255
-15.6925 -86.3089 753 68 9 84 255
-13.1118 -86.5381 755 59 5 62 255
-10.4895 -86.5381 755 94 137 120 255
-23.6326 -84.0269 756 87 123 159 255
-21.0067 -84.0269 756 81 88 114 255
-18.3566 -83.9157 755 75 77 76 255
-15.7342 -83.9157 755 42 41 47 255
-13.1292 -84.0269 756 69 56 97 255
-10.5311 -84.2492 758 128 154 121 255
-28.0437 -79.0322 734 214 242 237 255
-25.4943 -79.0322 734 150 169 152 255
-22.8511 -78.7092 731 68 30 85 255
-21.0067 -81.401 756 52 62 88 255
-18.3809 -81.401 756 62 60 72 255
-15.755 -81.401 756 49 37 2 255
-13.1639 -81.6164 758 92 106 78 255
-28.1201 -76.6912 736 156 181 195 255
-25.5637 -76.6912 736 126 167 159 255
-21.0067 -78.7752 756 27 64 57 255
-18.3809 -78.7752 756 56 64 63 255
-15.755 -78.7752 756 58 19 37 255
-28.1583 -74.2355 737 103 121 136 255
-25.5985 -74.2355 737 47 31 110 255
-21.0067 -76.1494 756 47 49 47 255
-18.4295 -76.3508 758 51 62 70 255
-15.7967 -76.3508 758 83 54 71 255
-31.5934 -73.718 758 121 137 194 255
-28.7696 -73.2318 753 90 115 123 255
-26.05 -72.94 750 60 47 66 255
-23.5075 -73.1345 752 49 42 30 255
-20.9789 -73.4263 755 48 54 61 255
-18.4295 -73.718 758 48 54 78 255
-15.8384 -73.9125 760 82 58 90 255
-110.97 -69.6785 743 160 208 187 255
-108.243 -69.5848 742 139 129 102 255
-105.666 -69.5848 742 128 100 79 255
-34.3617 -71.3666 761 134 160 174 255
-31.6768 -71.2728 760 116 107 176 255
-28.8842 -70.8977 756 77 66 119 255
-26.2237 -70.8039 755 52 38 84 255
-23.6013 -70.8039 755 41 47 32 255
-21.0623 -71.0852 758 42 49 69 255
-18.4781 -71.2728 760 57 34 77 255
-15.8592 -71.3666 761 99 101 107 255
-110.97 -67.0979 743 176 192 193 255
-108.389 -67.0979 743 218 254 201 255
-105.808 -67.0979 743 178 179 112 255
-103.227 -67.0979 743 131 128 157 255
-100.647 -67.0979 743 99 86 63 255
-98.3301 -67.2785 745 54 63 89 255
-34.452 -68.904 763 146 175 205 255
-31.6768 -68.6331 760 113 137 163 255
-28.9607 -68.4525 758 80 85 101 255
-26.2584 -68.2718 756 66 56 79 255
-23.6326 -68.2718 756 48 53 54 255
-21.1179 -68.6331 760 39 40 81 255
-18.5024 -68.7234 761 71 81 67 255
-108.389 -64.5172 743 189 211 229 255
-105.808 -64.5172 743 204 254 238 255
-103.227 -64.5172 743 169 133 121 255
-100.647 -64.5172 743 111 112 89 255
-98.3301 -64.6908 745 79 84 88 255
-34.5423 -66.4275 765 162 197 230 255
-31.7185 -66.0802 761 152 150 185 255
-29.0371 -65.9933 760 114 109 122 255
-26.3279 -65.8197 758 70 51 74 255
-23.7576 -65.9933 760 51 49 52 255
-21.1179 -65.9933 760 52 59 60 255
-18.5024 -66.0802 761 89 93 88 255
-108.389 -61.9365 743 185 213 228 255
-106.093 -62.1032 745 204 228 240 255
-103.227 -61.9365 743 174 172 161 255
-100.647 -61.9365 743 128 129 140 255
-98.594 -62.2699 747 89 88 87 255
-96.385 -62.52 750 60 72 30 255
-37.1994 -63.7704 765 170 172 220 255
-34.452 -63.6037 763 190 220 246 255
-31.7185 -63.437 761 204 239 234 255
-29.0753 -63.437 761 146 142 145 255
-26.4321 -63.437 761 72 49 67 255
-23.7889 -63.437 761 50 53 67 255
-21.1457 -63.437 761 77 80 60 255
-108.681 -59.5156 745 173 190 233 255
-106.093 -59.5156 745 213 244 229 255
-103.505 -59.5156 745 182 197 192 255
-101.189 -59.6753 747 92 94 115 255
-98.726 -59.7552 748 42 53 49 255
-96.642 -60.0748 752 46 38 73 255
-94.1551 -60.1547 753 78 79 117 255
-37.1994 -61.1133 765 190 225 245 255
-34.452 -60.9535 763 217 231 250 255
-31.8018 -60.9535 763 210 243 254 255
-29.0753 -60.7938 761 140 134 140 255
-26.4321 -60.7938 761 67 41 56 255
-23.8514 -60.9535 763 40 48 74 255
-21.2012 -60.9535 763 61 94 85 255
-106.52 -57.1572 748 187 254 241 255
-103.922 -57.1572 748 185 198 166 255
-101.595 -57.31 750 93 86 96 255
-98.99 -57.31 750 28 12 4 255
-96.7705 -57.5392 753 22 24 79 255
-94.4052 -57.6921 755 40 23 76 255
-40.0128 -58.6854 768 188 192 229 255
-37.2967 -58.609 767 219 243 251 255
-34.5423 -58.4562 765 227 254 254 255
-31.8018 -58.3034 763 185 194 252 255
-29.1517 -58.3034 763 112 129 114 255
-26.5015 -58.3034 763 69 53 62 255
-23.8514 -58.3034 763 57 56 76 255
-21.2012 -58.3034 763 62 89 95 255
-106.805 -54.705 750 172 220 229 255
-104.2 -54.705 750 162 183 164 255
-101.866 -54.8509 752 82 39 102 255
-99.254 -54.8509 752 42 40 27 255
-97.0276 -55.0697 755 47 41 77 255
-94.4052 -55.0697 755 53 64 77 255
-91.7828 -55.0697 755 87 108 142 255
-89.1605 -55.0697 755 145 185 175 255
-40.0128 -56.0179 768 199 238 250 255
-37.3453 -56.0179 768 234 252 254 255
-34.6326 -55.945 767 216 239 251 255
-31.8018 -55.6532 763 155 163 234 255
-29.1517 -55.6532 763 87 102 82 255
-26.571 -55.7991 765 65 66 85 255
-23.9139 -55.7991 765 63 80 71 255
-104.895 -52.4473 755 163 207 201 255
-102.272 -52.4473 755 93 55 85 255
-99.6499 -52.4473 755 45 30 68 255
-97.0276 -52.4473 755 58 75 76 255
-94.5302 -52.5168 756 68 77 82 255
-91.9044 -52.5168 756 70 65 112 255
-40.117 -53.4893 770 228 254 254 255
-37.3453 -53.3504 768 247 254 254 255
-34.6326 -53.2809 767 213 248 251 255
-31.8852 -53.142 765 125 122 110 255
-29.3045 -53.2809 767 72 67 98 255
-26.6405 -53.2809 767 72 83 91 255
-23.9764 -53.2809 767 91 64 76 255
-105.311 -50.0229 758 148 206 215 255
-102.679 -50.0229 758 98 72 95 255
-99.7819 -49.891 756 46 63 80 255
-97.1561 -49.891 756 49 45 70 255
-95.0304 -50.1549 760 51 69 86 255
-92.5122 -50.2209 761 52 57 88 255
-42.7915 -50.8149 770 196 203 243 255
-40.117 -50.8149 770 241 254 254 255
-37.3453 -50.6829 768 239 254 254 255
-34.6778 -50.6829 768 145 161 215 255
-31.9686 -50.6169 767 69 82 61 255
-29.3427 -50.6829 768 70 89 114 255
-26.6752 -50.6829 768 96 107 100 255
-24.0077 -50.6829 768 136 103 114 255
-105.728 -47.5777 761 144 163 190 255
-103.085 -47.5777 761 105 95 116 255
-100.442 -47.5777 761 59 45 76 255
-97.7986 -47.5777 761 51 38 36 255
-95.4055 -47.7028 763 43 21 81 255
-92.9985 -47.8278 765 53 73 74 255
-90.3414 -47.8278 765 64 65 101 255
-42.7915 -48.1404 770 213 251 249 255
-40.117 -48.1404 770 251 254 254 255
-37.3453 -48.0154 768 215 254 254 255
-34.6778 -48.0154 768 114 103 132 255
-32.0102 -48.0154 768 68 78 117 255
-29.3427 -48.0154 768 85 86 82 255
-26.6752 -48.0154 768 122 152 146 255
-103.356 -45.0526 763 131 127 125 255
-100.706 -45.0526 763 73 62 81 255
-98.0557 -45.0526 763 57 68 39 255
-95.6556 -45.1707 765 33 39 86 255
-93.2416 -45.2888 767 36 58 70 255
-90.6957 -45.3478 768 52 54 53 255
-42.7915 -45.4659 770 222 254 254 255
-40.117 -45.4659 770 247 254 254 255
-37.3453 -45.3478 768 183 217 222 255
-34.6778 -45.3478 768 88 41 65 255
-32.0936 -45.4659 770 59 84 103 255
-29.4191 -45.4659 770 105 89 102 255
-26.7447 -45.4659 770 153 183 165 255
-103.898 -42.6247 767 168 196 172 255
-101.234 -42.6247 767 92 58 84 255
-98.5697 -42.6247 767 49 58 73 255
-95.9057 -42.6247 767 55 53 88 255
-93.6063 -42.7915 770 51 58 69 255
-90.9319 -42.7915 770 49 62 43 255
-88.4866 -42.9026 772 67 64 70 255
-42.9582 -42.9582 773 215 254 254 255
-40.2212 -42.9026 772 216 241 254 255
-37.4425 -42.7915 770 141 167 146 255
-34.7681 -42.7915 770 61 26 31 255
-32.0936 -42.7915 770 65 83 87 255
-29.5338 -42.9582 773 122 143 164 255
-101.63 -40.117 770 141 137 113 255
-98.6982 -40.0128 768 90 68 96 255
-96.0307 -40.0128 768 72 89 108 255
-93.6063 -40.117 770 60 55 58 255
-91.1681 -40.2212 772 46 56 64 255
-88.6013 -40.2733 773 27 31 23 255
-85.9164 -40.2733 773 80 113 161 255
-45.7612 -40.3775 775 195 239 244 255
-43.0693 -40.3775 775 170 157 223 255
-40.2733 -40.2733 773 150 168 222 255
-37.5398 -40.2212 772 102 92 71 255
-34.8584 -40.2212 772 66 75 64 255
-32.177 -40.2212 772 89 102 82 255
-102.026 -37.5884 773 156 170 164 255
-99.2123 -37.5398 772 130 116 127 255
-96.6559 -37.5884 773 117 144 156 255
-93.8495 -37.5398 772 86 90 69 255
-91.1681 -37.5398 772 41 30 61 255
-88.8305 -37.6857 775 34 20 49 255
-86.1387 -37.6857 775 60 57 90 255
-45.8793 -37.7829 777 219 254 252 255
-43.0693 -37.6857 775 162 141 182 255
-40.2733 -37.5884 773 121 148 175 255
-37.5398 -37.5398 772 74 23 25 255
-34.9035 -37.5884 773 59 79 95 255
-32.3854 -37.7829 777 111 114 102 255
-102.818 -35.1744 779 139 163 157 255
-99.8549 -35.0841 777 129 126 140 255
-96.906 -34.9938 775 120 141 157 255
-93.971 -34.9035 773 105 98 114 255
-91.5223 -34.9938 775 57 38 32 255
-88.8305 -34.9938 775 43 55 75 255
-86.361 -35.0841 777 42 50 61 255
-83.6622 -35.0841 777 61 83 99 255
-48.7031 -35.1744 779 234 254 254 255
-45.8793 -35.0841 777 185 209 250 255
-43.0693 -34.9938 775 127 129 169 255
-40.2733 -34.9035 773 100 121 142 255
-37.6857 -34.9938 775 69 39 41 255
-34.9938 -34.9938 775 81 89 100 255
-32.302 -34.9938 775 131 144 126 255
-100.24 -32.5104 780 112 121 136 255
-97.1561 -32.3854 777 110 98 132 255
-94.2142 -32.302 775 105 115 130 255
-91.7585 -32.3854 777 96 108 79 255
-89.0597 -32.3854 777 82 58 37 255
-86.361 -32.3854 777 58 64 53 255
-83.6622 -32.3854 777 45 53 55 255
-48.7031 -32.4687 779 235 254 254 255
-45.8793 -32.3854 777 175 177 232 255
-43.0693 -32.302 775 123 143 155 255
-40.3775 -32.302 775 104 94 121 255
-37.6857 -32.302 775 79 89 84 255
-34.9938 -32.302 775 108 104 124 255
-32.302 -32.302 775 150 177 143 255
-100.24 -29.8012 780 121 123 119 255
-97.5312 -29.8012 780 126 130 159 255
-94.4573 -29.6866 777 105 39 101 255
-91.7585 -29.6866 777 106 130 106 255
-89.0597 -29.6866 777 101 103 47 255
-86.361 -29.6866 777 67 55 45 255
-83.8775 -29.763 779 60 53 70 255
-80.9634 -29.6866 777 53 66 72 255
-51.6068 -29.8776 782 159 189 237 255
-48.7031 -29.763 779 183 222 234 255
-45.8793 -29.6866 777 142 139 196 255
-43.1805 -29.6866 777 115 125 160 255
-40.4817 -29.6866 777 103 90 121 255
-37.7829 -29.6866 777 85 98 103 255
-35.0841 -29.6866 777 126 130 143 255
-101.011 -27.3004 786 109 102 126 255
-98.2814 -27.3004 786 115 129 167 255
-94.7004 -27.0573 779 123 113 89 255
-91.7585 -26.9878 777 154 204 141 255
-89.289 -27.0573 779 155 165 115 255
-86.5833 -27.0573 779 97 105 76 255
-83.8775 -27.0573 779 72 81 75 255
-81.1718 -27.0573 779 66 68 42 255
-78.5668 -27.092 780 66 68 105 255
-51.6068 -27.1615 782 188 242 237 255
-48.7656 -27.092 780 184 214 216 255
-45.9974 -27.0573 779 124 110 146 255
-43.1805 -26.9878 777 106 129 158 255
-40.5859 -27.0573 779 91 100 127 255
-37.8802 -27.0573 779 85 49 104 255
-35.0841 -26.9878 777 130 165 162 255
-94.7004 -24.3515 779 105 129 147 255
-91.9947 -24.3515 779 133 154 220 255
-89.289 -24.3515 779 178 204 173 255
-86.5833 -24.3515 779 128 128 125 255
-83.9852 -24.3828 780 75 68 54 255
-81.6928 -24.5078 784 64 78 66 255
-78.9697 -24.5078 784 50 47 65 255
-51.6068 -24.4453 782 193 234 249 255
-48.7656 -24.3828 780 154 163 209 255
-46.0564 -24.3828 780 118 127 136 255
-43.2916 -24.3515 779 109 124 135 255
-40.5859 -24.3515 779 87 87 91 255
-37.9288 -24.3828 780 105 101 128 255
-92.349 -21.7292 782 121 70 170 255
-89.6328 -21.7292 782 135 184 213 255
-86.9167 -21.7292 782 154 157 184 255
-84.2005 -21.7292 782 108 107 77 255
-81.9012 -21.8403 786 58 54 71 255
-79.1712 -21.8403 786 37 40 41 255
-51.6068 -21.7292 782 197 227 251 255
-48.7656 -21.6736 780 119 151 160 255
-46.0564 -21.6736 780 87 87 128 255
-43.3472 -21.6736 780 93 99 121 255
-40.7422 -21.7292 782 109 94 96 255
-38.0261 -21.7292 782 142 154 146 255
-92.5852 -19.0617 784 138 158 140 255
-89.6328 -19.013 782 113 124 172 255
-87.139 -19.0617 784 127 164 184 255
-84.4159 -19.0617 784 120 145 124 255
-81.9012 -19.1103 786 61 72 55 255
-79.3726 -19.1589 788 27 26 37 255
-76.6356 -19.1589 788 22 31 29 255
-73.8986 -19.1589 788 16 71 68 255
-54.6008 -19.1103 786 216 254 254 255
-51.6068 -19.013 782 157 164 213 255
-48.7656 -18.9644 780 85 85 119 255
-46.1745 -19.013 782 86 107 108 255
-43.4583 -19.013 782 95 89 113 255
-40.7422 -19.013 782 130 163 147 255
-89.8621 -16.3386 784 134 139 125 255
-87.139 -16.3386 784 87 83 150 255
-84.6312 -16.3802 786 76 94 126 255
-82.1096 -16.4219 788 70 81 71 255
-79.3726 -16.4219 788 56 35 78 255
-76.4411 -16.3802 786 49 47 68 255
-73.8986 -16.4219 788 45 42 65 255
-71.1617 -16.4219 788 46 49 92 255
-68.251 -16.3802 786 59 57 135 255
-65.771 -16.4428 789 85 113 116 255
-60.2137 -16.4219 788 111 83 159 255
-57.3308 -16.3802 786 185 254 240 255
-54.4619 -16.3386 784 193 228 225 255
-51.6068 -16.2969 782 115 99 154 255
-48.8906 -16.2969 782 96 123 130 255
-46.1745 -16.2969 782 96 109 119 255
-43.5695 -16.3386 784 111 79 124 255
-87.5836 -13.6849 788 120 105 148 255
-84.4159 -13.6155 784 107 101 130 255
-81.9012 -13.6502 786 104 108 118 255
-78.9697 -13.6155 784 80 94 94 255
-76.4411 -13.6502 786 73 79 82 255
-73.7111 -13.6502 786 60 62 60 255
-71.1617 -13.6849 788 64 76 82 255
-68.251 -13.6502 786 74 69 76 255
-65.6877 -13.6849 788 67 58 77 255
-62.9507 -13.6849 788 81 98 131 255
-60.2137 -13.6849 788 134 145 195 255
-57.3308 -13.6502 786 176 227 253 255
-54.4619 -13.6155 784 141 158 184 255
-51.7388 -13.6155 784 99 112 135 255
-49.0157 -13.6155 784 103 137 145 255
-46.2926 -13.6155 784 86 84 110 255
-43.6806 -13.6502 786 129 154 147 255
-84.4159 -10.8924 784 149 174 180 255
-81.9012 -10.9202 786 111 128 155 255
-78.9697 -10.8924 784 83 78 111 255
-76.4411 -10.9202 786 81 82 82 255
-73.7111 -10.9202 786 53 56 54 255
-71.1617 -10.9479 788 54 72 79 255
-68.4247 -10.9479 788 84 103 102 255
-65.6877 -10.9479 788 88 99 102 255
-62.9507 -10.9479 788 91 94 118 255
-60.0609 -10.9202 786 131 179 193 255
-57.3308 -10.9202 786 154 174 227 255
-54.4619 -10.8924 784 117 124 143 255
-51.7388 -10.8924 784 93 93 134 255
-49.0157 -10.8924 784 84 108 125 255
-84.6312 -8.19012 786 166 178 201 255
-82.1096 -8.21096 788 160 172 177 255
-79.1712 -8.19012 786 113 112 127 255
-76.6356 -8.21096 788 77 79 68 255
-73.8986 -8.21096 788 70 85 86 255
-71.252 -8.22138 789 75 83 93 255
-68.5115 -8.22138 789 95 108 123 255
-65.771 -8.22138 789 117 161 148 255
-62.9507 -8.21096 788 116 111 135 255
-60.0609 -8.19012 786 112 132 171 255
-57.3308 -8.19012 786 129 143 167 255
-54.6008 -8.19012 786 111 131 110 255
-51.8708 -8.19012 786 85 100 133 255
-49.0157 -8.16928 784 67 52 80 255
-82.2138 -5.48092 789 135 143 161 255
-79.3726 -5.47397 788 158 191 176 255
-76.6356 -5.47397 788 131 135 106 255
-73.8986 -5.47397 788 78 84 100 255
-71.252 -5.48092 789 76 86 109 255
-68.5115 -5.48092 789 88 81 119 255
-65.771 -5.48092 789 116 180 174 255
-62.9507 -5.47397 788 112 105 144 255
-60.2137 -5.47397 788 84 103 130 255
-57.4767 -5.47397 788 83 97 116 255
-54.7397 -5.47397 788 80 95 108 255
-52.0027 -5.47397 788 70 79 72 255
-49.1407 -5.46008 786 95 60 96 255
-79.6748 -2.74741 791 129 128 198 255
-76.7329 -2.74046 789 137 167 168 255
-73.9924 -2.74046 789 116 103 121 255
-71.252 -2.74046 789 88 81 90 255
-68.5115 -2.74046 789 91 94 128 255
-65.771 -2.74046 789 100 131 144 255
-63.0306 -2.74046 789 95 120 121 255
-60.2901 -2.74046 789 76 67 115 255
-57.4767 -2.73699 788 67 72 96 255
-54.7397 -2.73699 788 65 82 106 255
-52.0027 -2.73699 788 63 4 37 255
-49.2658 -2.73699 788 113 154 155 255
-76.9274 0 791 156 160 203 255
-73.9924 0 789 180 212 198 255
-71.252 0 789 155 177 124 255
-68.5115 0 789 109 109 136 255
-65.771 0 789 88 107 120 255
-63.0306 0 789 83 97 97 255
-60.4429 0 791 69 67 101 255
-57.5497 0 789 58 65 86 255
-54.8092 0 789 48 71 89 255
-52.0687 0 789 87 81 97 255
-77.1219 2.75435 793 166 156 228 255
-74.18 2.74741 791 196 254 254 255
-71.4326 2.74741 791 186 188 203 255
-68.5115 2.74046 789 126 132 133 255
-65.771 2.74046 789 83 88 127 255
-63.0306 2.74046 789 70 79 85 255
-60.2901 2.74046 789 58 64 82 255
-57.6955 2.74741 791 36 56 68 255
-54.8092 2.74046 789 46 62 38 255
-52.0687 2.74046 789 108 133 143 255
-77.3164 5.5226 795 164 141 217 255
-74.3675 5.50871 793 190 254 254 255
-71.4326 5.49481 791 185 197 237 255
-68.6852 5.49481 791 144 155 152 255
-65.771 5.48092 789 101 103 129 255
-63.1904 5.49481 791 69 72 72 255
-60.4429 5.49481 791 60 65 64 255
-57.6955 5.49481 791 51 34 28 255
-54.9481 5.49481 791 84 105 55 255
-77.5109 8.30474 797 169 155 205 255
-74.7427 8.30474 797 184 227 254 255
-71.4326 8.24222 791 163 182 233 255
-68.6852 8.24222 791 127 158 181 255
-65.9378 8.24222 791 93 99 131 255
-63.1904 8.24222 791 57 54 57 255
-60.4429 8.24222 791 57 58 60 255
-57.8414 8.26306 793 59 38 1 255
-54.9481 8.24222 791 102 129 118 255
-77.5109 11.073 797 173 179 194 255
-74.7427 11.073 797 160 199 237 255
-71.9744 11.073 797 115 98 176 255
-68.6852 10.9896 791 98 120 159 255
-66.1045 11.0174 793 95 126 131 255
-63.3501 11.0174 793 49 36 33 255
-60.5958 11.0174 793 31 47 61 255
-57.9873 11.0452 795 77 86 44 255
-77.5109 13.8412 797 207 214 199 255
-74.7427 13.8412 797 181 215 230 255
-71.7938 13.8065 795 107 96 123 255
-68.8588 13.7718 793 78 106 128 255
-65.9378 13.737 791 97 123 130 255
-63.3501 13.7718 793 66 59 46 255
-60.7486 13.8065 795 44 46 62 255
-77.5109 16.6095 797 233 244 235 255
-74.7427 16.6095 797 178 209 210 255
-71.7938 16.5678 795 110 65 116 255
-68.8588 16.5261 793 92 105 125 255
-66.2712 16.5678 795 113 136 132 255
-63.5099 16.5678 795 85 86 76 255
-60.9014 16.6095 797 61 73 76 255
-80.5813 19.4507 800 215 254 252 255
-77.6082 19.402 798 213 250 240 255
-74.7427 19.3777 797 150 144 180 255
-71.7938 19.3291 795 108 106 123 255
-68.8588 19.2805 793 91 91 107 255
-66.1045 19.2805 793 103 132 129 255
-63.6697 19.3777 797 65 74 81 255
-60.9014 19.3777 797 58 68 91 255
-80.5813 22.2293 800 240 254 254 255
-77.6082 22.1738 798 205 217 225 255
-74.7427 22.146 797 150 141 181 255
-71.9744 22.146 797 115 116 113 255
-69.0325 22.0904 795 79 49 72 255
-66.2712 22.0904 795 79 120 134 255
-63.7496 22.1738 798 63 22 85 255
-60.9014 22.146 797 80 76 106 255
-58.6438 22.3405 804 126 138 121 255
-81.3871 25.2581 808 242 254 254 255
-77.6082 24.9455 798 207 231 228 255
-74.8364 24.9455 798 144 123 184 255
-71.9744 24.9142 797 105 103 94 255
-69.2062 24.9142 797 85 56 79 255
-66.4379 24.9142 797 82 107 125 255
-63.9093 25.008 800 73 68 66 255
-61.1307 25.008 800 94 84 129 255
-78.1917 27.9256 804 167 198 225 255
-75.024 27.7867 800 135 133 160 255
-72.0647 27.7172 798 113 103 119 255
-69.293 27.7172 798 98 104 98 255
-66.5213 27.7172 798 83 86 102 255
-63.9093 27.7867 800 83 83 65 255
-77.9972 30.6417 802 136 149 199 255
-75.024 30.5653 800 118 125 135 255
-72.0647 30.4889 798 120 124 133 255
-69.293 30.4889 798 104 121 98 255
-66.688 30.5653 800 86 89 105 255
-63.9093 30.5653 800 92 92 91 255
-81.7901 33.8442 812 142 168 200 255
-77.9972 33.4274 802 138 144 173 255
-75.024 33.344 800 116 128 130 255
-72.2453 33.344 800 97 82 108 255
-69.4667 33.344 800 95 123 125 255
-66.688 33.344 800 90 95 111 255
-81.1857 36.3936 806 145 165 205 255
-78.1917 36.3033 804 138 144 171 255
-75.2116 36.213 802 115 132 125 255
-72.4259 36.213 802 87 72 103 255
-69.6403 36.213 802 86 94 127 255
-66.8547 36.213 802 90 94 106 255
-64.0691 36.213 802 94 96 84 255
-84.6104 39.4849 812 153 170 198 255
-81.3871 39.2903 808 161 178 196 255
-78.1917 39.0958 804 152 160 178 255
-75.3991 39.0958 804 111 125 127 255
-72.4259 38.9986 802 76 65 101 255
-69.814 39.0958 804 77 105 103 255
-67.0214 39.0958 804 91 100 95 255
-64.3886 39.1931 806 96 94 77 255
-84.8188 42.4094 814 152 164 189 255
-81.5886 42.201 810 154 166 191 255
-78.3862 41.9926 806 142 153 182 255
-75.3991 41.8884 804 108 108 127 255
-72.6066 41.8884 804 83 78 87 255
-69.9877 41.9926 806 81 87 93 255
-67.1882 41.9926 806 89 96 89 255
-64.3886 41.9926 806 95 99 71 255
-84.8188 45.2367 814 164 168 196 255
-81.7901 45.1255 812 145 170 189 255
-78.3862 44.7921 806 129 130 167 255
-75.5867 44.7921 806 96 98 125 255
-72.7872 44.7921 806 67 68 77 255
-70.1613 44.9033 808 72 98 89 255
-67.3549 44.9033 808 90 96 97 255
-64.5484 44.9033 808 93 94 65 255
-84.8188 48.064 814 181 189 210 255
-81.9915 48.064 814 138 153 189 255
-78.7752 47.8278 810 112 122 153 255
-75.7742 47.7097 808 78 84 115 255
-72.9678 47.7097 808 64 67 80 255
-70.335 47.8278 810 78 98 82 255
-67.5216 47.8278 810 89 94 100 255
-65.0277 48.064 814 94 105 74 255
-87.9691 51.0788 817 183 252 250 255
-84.923 50.9538 815 180 183 207 255
-81.9915 50.8913 814 133 151 192 255
-78.9697 50.7662 812 97 102 147 255
-76.1494 50.7662 812 70 71 97 255
-73.1484 50.6412 810 62 53 52 255
-70.335 50.6412 810 71 87 68 255
-67.6883 50.7662 812 82 86 78 255
-64.7082 50.6412 810 89 94 66 255
-88.1845 54.0485 819 195 254 250 255
-84.923 53.7846 815 166 172 207 255
-81.9915 53.7186 814 123 133 173 255
-78.9697 53.5866 812 90 94 136 255
-76.1494 53.5866 812 63 62 85 255
-73.329 53.5866 812 46 53 52 255
-70.5087 53.5866 812 51 72 65 255
-67.6883 53.5866 812 70 58 51 255
-88.3998 57.0321 821 206 241 253 255
-85.5482 57.0321 821 160 177 193 255
-82.0922 56.6153 815 119 122 149 255
-78.9697 56.4069 812 78 86 126 255
-76.1494 56.4069 812 57 53 76 255
-73.329 56.4069 812 73 65 85 255
-70.5087 56.4069 812 83 71 78 255
-67.6883 56.4069 812 80 63 55 255
-88.6152 60.0296 823 212 228 249 255
-85.1314 59.592 817 157 169 192 255
-82.0922 59.4461 815 115 126 121 255
-79.1642 59.3732 814 71 64 105 255
-76.3369 59.3732 814 49 42 86 255
-73.5096 59.3732 814 59 57 90 255
-70.6823 59.3732 814 74 96 81 255
-67.9384 59.4461 815 82 67 71 255
-88.6152 62.8882 823 215 235 243 255
-85.5482 62.7353 821 187 199 229 255
-82.0922 62.2769 815 148 159 124 255
-79.1642 62.2005 814 71 54 90 255
-76.3369 62.2005 814 26 39 100 255
-73.5999 62.2769 815 35 44 68 255
-70.9428 62.4297 817 70 92 93 255
-68.1051 62.4297 817 84 93 77 255
-88.1845 65.4272 819 213 183 236 255
-85.1314 65.2674 817 197 248 254 255
-82.0922 65.1076 815 163 182 168 255
-79.2615 65.1076 815 119 96 116 255
-76.4307 65.1076 815 108 128 125 255
-73.9612 65.4272 819 81 67 76 255
-71.2902 65.587 821 73 89 120 255
-68.4386 65.587 821 77 89 86 255
-88.6152 68.6053 823 223 226 243 255
-85.5482 68.4386 821 193 241 245 255
-82.4951 68.2718 819 154 155 199 255
-79.6505 68.2718 819 127 146 158 255
-76.8058 68.2718 819 115 134 149 255
-74.1418 68.4386 821 90 88 109 255
-71.2902 68.4386 821 81 88 115 255
-68.6053 68.6053 823 80 87 83 255
-65.9065 68.772 825 83 83 65 255
-89.0458 71.8112 827 240 254 254 255
-85.7566 71.4638 823 226 254 245 255
-82.6966 71.2902 821 182 184 224 255
-79.6505 71.1165 819 147 171 178 255
-76.9934 71.2902 821 115 113 148 255
-74.1418 71.2902 821 96 98 120 255
-71.4638 71.4638 823 89 88 89 255
-68.772 71.6375 825 84 88 79 255
-65.9065 71.6375 825 86 83 61 255
-89.2612 74.8642 829 182 209 250 255
-85.965 74.503 825 246 254 254 255
-82.898 74.3224 823 206 206 241 255
-79.845 74.1418 821 140 159 186 255
-77.1809 74.3224 823 116 122 157 255
-74.1418 74.1418 821 107 121 132 255
-71.4638 74.3224 823 92 90 77 255
-68.772 74.503 825 80 84 75 255
-65.9065 74.503 825 78 79 63 255
-89.4765 77.9312 831 71 55 143 255
-86.1734 77.5561 827 174 254 250 255
-83.3009 77.5561 827 201 207 219 255
-80.234 77.3685 825 147 178 176 255
-77.3685 77.3685 825 127 124 156 255
-74.1418 76.9934 821 104 117 122 255
-71.6375 77.3685 825 80 69 46 255
-69.1054 77.7436 829 81 81 57 255
-86.3818 80.623 829 102 167 199 255
-83.3009 80.4285 827 151 181 185 255
-80.4285 80.4285 827 134 114 150 255
-77.5561 80.4285 827 134 174 162 255
-74.6836 80.4285 827 110 116 113 255
-71.8112 80.4285 827 80 74 11 255
-83.5024 83.5024 829 68 83 110 255
-80.623 83.5024 829 66 59 100 255
-77.7436 83.5024 829 67 49 113 255
-74.8642 83.5024 829 73 77 99 255
-71.9848 83.5024 829 73 74 33 255
