ply
format ascii 1.0
element vertex 781
property float x
property float y
property float z
property uchar red
property uchar green
property uchar blue
property uchar alpha
end_header
14.2928 -54.3125 823 157 174 181 255
17.193 -54.4445 825 143 175 186 255
19.9612 -54.1805 821 126 145 140 255
25.727 -54.3125 823 94 118 120 255
11.4342 -51.454 823 142 166 185 255
14.258 -51.3289 821 124 139 177 255
17.1096 -51.3289 821 114 116 162 255
19.9612 -51.3289 821 112 121 130 255
22.8129 -51.3289 821 99 100 76 255
25.6645 -51.3289 821 89 91 104 255
28.5161 -51.3289 821 116 122 154 255
31.2913 -51.2039 819 152 160 120 255
8.55482 -48.4773 821 104 134 148 255
11.3786 -48.3592 819 100 104 120 255
14.2233 -48.3592 819 96 115 145 255
17.1096 -48.4773 821 103 124 128 255
19.9612 -48.4773 821 102 114 117 255
22.8129 -48.4773 821 97 105 115 255
25.6645 -48.4773 821 92 96 115 255
28.5161 -48.4773 821 112 126 138 255
31.3677 -48.4773 821 148 167 138 255
5.67543 -45.4034 817 106 113 94 255
8.53398 -45.5146 819 77 89 90 255
11.3509 -45.4034 817 51 44 84 255
14.1886 -45.4034 817 68 85 89 255
17.068 -45.5146 819 85 96 115 255
19.9126 -45.5146 819 88 98 110 255
22.8129 -45.6257 821 88 95 112 255
25.6645 -45.6257 821 81 93 111 255
28.5161 -45.6257 821 62 79 102 255
31.3677 -45.6257 821 75 77 141 255
-13.9628 -41.8884 804 126 124 133 255
-11.198 -41.9926 806 118 123 113 255
-8.41936 -42.0968 808 113 125 131 255
-5.61291 -42.0968 808 113 127 119 255
-2.82035 -42.3052 812 108 111 118 255
0 -42.3052 812 77 80 79 255
2.82729 -42.4094 814 52 62 74 255
5.65459 -42.4094 814 48 64 55 255
8.48188 -42.4094 814 46 32 49 255
11.3092 -42.4094 814 46 50 84 255
14.1538 -42.4615 815 54 68 23 255
16.9846 -42.4615 815 69 78 77 255
19.864 -42.5657 817 76 85 97 255
22.7017 -42.5657 817 80 94 99 255
25.6019 -42.6699 819 81 93 101 255
28.5161 -42.7741 821 98 77 97 255
31.3677 -42.7741 821 139 145 139 255
34.2193 -42.7741 821 157 170 135 255
-24.9455 -38.8041 798 133 117 144 255
-19.5479 -39.0958 804 123 140 134 255
-16.797 -39.1931 806 111 123 130 255
-13.9975 -39.1931 806 99 106 116 255
-11.2258 -39.2903 808 93 101 116 255
-8.41936 -39.2903 808 91 95 113 255
-5.61291 -39.2903 808 74 87 93 255
-2.8134 -39.3876 810 51 58 79 255
0 -39.3876 810 38 32 61 255
2.8134 -39.3876 810 37 44 53 255
5.64069 -39.4849 812 43 44 39 255
8.46104 -39.4849 812 42 43 41 255
11.3092 -39.5821 814 44 42 68 255
14.1365 -39.5821 814 51 53 31 255
16.9846 -39.6307 815 62 71 56 255
19.8154 -39.6307 815 61 66 94 255
22.7017 -39.728 817 70 82 90 255
25.6019 -39.8252 819 86 92 97 255
28.4466 -39.8252 819 109 121 103 255
31.3677 -39.9225 821 148 172 155 255
34.3026 -40.0197 823 164 172 156 255
-52.3327 -35.8066 793 149 153 150 255
-38.9013 -36.1227 800 136 153 153 255
-30.3743 -35.8969 795 71 88 113 255
-27.6825 -35.9872 797 68 62 133 255
-24.9455 -36.0324 798 76 103 131 255
-22.2293 -36.1227 800 81 86 120 255
-19.4507 -36.1227 800 78 91 108 255
-16.7137 -36.213 802 84 93 109 255
-13.9628 -36.3033 804 76 73 80 255
-11.198 -36.3936 806 51 56 89 255
-8.39852 -36.3936 806 40 47 74 255
-5.59901 -36.3936 806 42 36 64 255
-2.80645 -36.4839 808 46 42 40 255
0 -36.4839 808 47 40 28 255
2.80645 -36.4839 808 46 47 49 255
5.6268 -36.5742 810 41 46 45 255
8.46104 -36.6645 812 38 49 39 255
11.3092 -36.7548 814 48 44 63 255
14.1365 -36.7548 814 58 57 64 255
16.9638 -36.7548 814 69 69 70 255
19.8154 -36.8 815 73 70 95 255
22.7017 -36.8903 817 77 77 92 255
25.6019 -36.9806 819 86 87 94 255
28.4466 -36.9806 819 87 76 96 255
31.3677 -37.0709 821 125 158 164 255
-141.379 -32.0102 768 79 92 142 255
-138.711 -32.0102 768 57 84 139 255
-112.765 -32.2186 773 80 98 143 255
-110.365 -32.302 775 80 103 150 255
-107.673 -32.302 775 82 101 133 255
-104.981 -32.302 775 83 102 128 255
-102.29 -32.302 775 84 100 100 255
-99.8549 -32.3854 777 81 86 107 255
-97.1561 -32.3854 777 81 89 103 255
-94.4573 -32.3854 777 76 76 112 255
-91.9947 -32.4687 779 72 94 130 255
-89.4036 -32.5104 780 77 79 129 255
-86.9167 -32.5938 782 78 83 120 255
-84.2005 -32.5938 782 79 101 111 255
-81.6928 -32.6771 784 79 86 112 255
-78.9697 -32.6771 784 82 87 123 255
-76.4411 -32.7605 786 79 97 122 255
-73.7111 -32.7605 786 80 90 137 255
-70.981 -32.7605 786 81 96 146 255
-67.9037 -32.5938 782 67 93 125 255
-65.771 -32.8855 789 55 75 113 255
-63.0306 -32.8855 789 48 76 112 255
-60.2901 -32.8855 789 32 46 127 255
-57.5497 -32.8855 789 28 23 126 255
-55.0871 -33.0522 793 34 53 111 255
-52.3327 -33.0522 793 32 44 101 255
-49.5784 -33.0522 793 26 44 73 255
-46.824 -33.0522 793 22 49 116 255
-44.0697 -33.0522 793 21 64 119 255
-41.5237 -33.219 797 21 44 118 255
-38.7555 -33.219 797 42 56 118 255
-35.9872 -33.219 797 77 92 116 255
-33.1356 -33.1356 795 88 104 102 255
-30.3743 -33.1356 795 87 98 82 255
-27.613 -33.1356 795 79 94 70 255
-24.9455 -33.2606 798 69 55 93 255
-22.1738 -33.2606 798 69 76 82 255
-19.4507 -33.344 800 67 81 65 255
-16.672 -33.344 800 52 48 41 255
-13.8933 -33.344 800 36 45 58 255
-11.1702 -33.5107 804 37 52 54 255
-8.39852 -33.5941 806 43 49 41 255
-5.59901 -33.5941 806 47 45 70 255
-2.79951 -33.5941 806 48 41 46 255
0 -33.5941 806 47 45 25 255
2.80645 -33.6774 808 46 45 47 255
5.6268 -33.7608 810 46 46 29 255
8.46104 -33.8442 812 49 49 55 255
11.3092 -33.9275 814 52 53 67 255
14.1365 -33.9275 814 56 52 75 255
16.9846 -33.9692 815 62 62 79 255
19.8154 -33.9692 815 61 69 90 255
22.7017 -34.0526 817 69 78 94 255
25.6645 -34.2193 821 81 80 94 255
28.5161 -34.2193 821 78 65 96 255
31.4441 -34.3026 823 117 129 128 255
-165.171 -29.3045 767 85 113 103 255
-162.507 -29.3045 767 75 73 110 255
-160.051 -29.3427 768 71 60 112 255
-157.384 -29.3427 768 67 75 108 255
-153.709 -29.1517 763 53 25 101 255
-151.059 -29.1517 763 40 24 109 255
-148.409 -29.1517 763 35 49 108 255
-145.758 -29.1517 763 58 72 96 255
-143.859 -29.3045 767 86 86 110 255
-141.194 -29.3045 767 85 102 120 255
-138.53 -29.3045 767 67 62 76 255
-135.866 -29.3045 767 44 45 55 255
-133.202 -29.3045 767 34 36 56 255
-130.708 -29.3427 768 22 37 40 255
-128.374 -29.4191 770 22 20 27 255
-125.7 -29.4191 770 40 47 44 255
-123.025 -29.4191 770 53 54 71 255
-120.351 -29.4191 770 64 75 79 255
-117.677 -29.4191 770 72 84 86 255
-115.45 -29.5338 773 76 81 98 255
-112.765 -29.5338 773 77 80 96 255
-110.365 -29.6102 775 75 80 99 255
-107.673 -29.6102 775 73 62 95 255
-104.711 -29.5338 773 65 27 84 255
-102.29 -29.6102 775 43 32 77 255
-99.8549 -29.6866 777 39 44 72 255
-97.1561 -29.6866 777 45 30 60 255
-94.4573 -29.6866 777 46 49 62 255
-91.9947 -29.763 779 57 86 78 255
-89.289 -29.763 779 63 69 79 255
-86.6944 -29.8012 780 64 63 65 255
-84.2005 -29.8776 782 58 59 67 255
-81.4844 -29.8776 782 41 66 77 255
-78.9697 -29.954 784 27 28 45 255
-76.2466 -29.954 784 38 29 51 255
-73.7111 -30.0304 786 47 41 67 255
-70.981 -30.0304 786 50 47 78 255
-68.251 -30.0304 786 54 51 64 255
-65.6877 -30.1069 788 51 53 71 255
-63.0306 -30.1451 789 49 66 47 255
-60.2901 -30.1451 789 51 67 71 255
-57.5497 -30.1451 789 53 72 61 255
-54.9481 -30.2215 791 41 54 71 255
-52.2007 -30.2215 791 35 47 61 255
-49.5784 -30.2979 793 45 52 33 255
-46.824 -30.2979 793 48 61 68 255
-43.9585 -30.2215 791 31 44 66 255
-41.4195 -30.3743 795 33 41 78 255
-38.6582 -30.3743 795 62 81 81 255
-35.8969 -30.3743 795 75 97 100 255
-33.1356 -30.3743 795 70 84 85 255
-30.3743 -30.3743 795 58 39 47 255
-27.613 -30.3743 795 50 21 56 255
-24.9142 -30.4507 797 47 48 68 255
-22.1738 -30.4889 798 50 53 72 255
-19.402 -30.4889 798 48 48 51 255
-16.6303 -30.4889 798 43 47 12 255
-13.8933 -30.5653 800 44 53 51 255
-11.1702 -30.7182 804 47 50 60 255
-8.37768 -30.7182 804 52 48 39 255
-5.59901 -30.7946 806 52 51 65 255
-2.79951 -30.7946 806 44 54 53 255
0 -30.871 808 44 49 47 255
2.80645 -30.871 808 44 49 59 255
5.6268 -30.9474 810 45 51 43 255
8.46104 -31.0238 812 56 51 75 255
11.3092 -31.1002 814 60 57 70 255
14.1365 -31.1002 814 63 77 84 255
16.9846 -31.1384 815 72 87 81 255
19.864 -31.2148 817 78 93 107 255
22.7573 -31.2913 819 83 96 114 255
25.6645 -31.3677 821 96 82 80 255
28.5161 -31.3677 821 107 94 97 255
31.3677 -31.3677 821 132 129 103 255
-172.712 -26.571 765 154 184 165 255
-169.61 -26.5015 763 103 88 104 255
-166.96 -26.5015 763 62 48 65 255
-164.74 -26.571 765 64 68 87 255
-162.083 -26.571 765 67 78 86 255
-159.426 -26.571 765 79 83 85 255
-156.359 -26.5015 763 79 97 90 255
-153.709 -26.5015 763 76 77 82 255
-151.059 -26.5015 763 74 72 84 255
-148.409 -26.5015 763 75 85 94 255
-146.141 -26.571 765 83 101 102 255
-143.483 -26.571 765 100 109 125 255
-140.826 -26.571 765 102 119 125 255
-138.169 -26.571 765 58 44 69 255
-135.866 -26.6405 767 22 17 50 255
-132.855 -26.571 765 21 18 37 255
-130.538 -26.6405 767 19 17 16 255
-128.041 -26.6752 768 23 30 34 255
-125.373 -26.6752 768 39 44 57 255
-123.025 -26.7447 770 54 62 76 255
-120.351 -26.7447 770 62 75 79 255
-117.371 -26.6752 768 62 74 70 255
-115.301 -26.8141 772 64 77 92 255
-112.619 -26.8141 772 59 54 63 255
-110.08 -26.8489 773 61 55 60 255
-107.395 -26.8489 773 74 67 63 255
-104.711 -26.8489 773 76 64 47 255
-102.29 -26.9183 775 69 63 87 255
-99.8549 -26.9878 777 62 51 15 255
-97.1561 -26.9878 777 54 47 53 255
-94.4573 -26.9878 777 33 46 65 255
-91.9947 -27.0573 779 32 31 34 255
-89.289 -27.0573 779 46 41 42 255
-86.5833 -27.0573 779 32 34 24 255
-83.9852 -27.092 780 30 39 17 255
-81.4844 -27.1615 782 29 45 75 255
-78.7682 -27.1615 782 28 36 23 255
-76.2466 -27.2309 784 36 30 28 255
-73.5235 -27.2309 784 16 36 35 255
-70.981 -27.3004 786 17 34 35 255
-68.4247 -27.3699 788 35 41 35 255
-65.6877 -27.3699 788 43 42 59 255
-62.9507 -27.3699 788 57 59 57 255
-60.2901 -27.4046 789 62 60 58 255
-57.5497 -27.4046 789 51 48 34 255
-54.8092 -27.4046 789 44 40 53 255
-52.2007 -27.4741 791 39 38 42 255
-49.4533 -27.4741 791 38 41 58 255
-46.7059 -27.4741 791 42 39 52 255
-43.9585 -27.4741 791 46 44 29 255
-41.2111 -27.4741 791 54 72 68 255
-38.4637 -27.4741 791 55 79 69 255
-35.8066 -27.5435 793 52 51 59 255
-33.0522 -27.5435 793 48 42 51 255
-30.3743 -27.613 795 47 44 20 255
-27.613 -27.613 795 47 42 68 255
-24.9142 -27.6825 797 41 49 49 255
-22.146 -27.6825 797 43 48 67 255
-19.402 -27.7172 798 48 46 45 255
-16.6303 -27.7172 798 41 42 11 255
-13.8933 -27.7867 800 41 46 45 255
-11.1425 -27.8561 802 48 46 55 255
-8.39852 -27.9951 806 50 51 39 255
-5.59901 -27.9951 806 51 51 48 255
-2.79951 -27.9951 806 53 51 38 255
0 -28.0645 808 51 50 38 255
2.80645 -28.0645 808 52 55 60 255
5.6268 -28.134 810 58 76 45 255
8.46104 -28.2035 812 69 84 64 255
11.3231 -28.3077 815 84 101 108 255
14.1538 -28.3077 815 102 102 108 255
17.0263 -28.3771 817 132 143 68 255
19.864 -28.3771 817 152 161 151 255
22.7573 -28.4466 819 154 141 131 255
25.6645 -28.5161 821 158 163 99 255
28.5161 -28.5161 821 163 157 121 255
31.7497 -28.8634 831 168 171 142 255
-175.827 -23.9764 767 196 190 187 255
-172.712 -23.9139 765 155 160 163 255
-169.165 -23.7889 761 75 37 90 255
-166.522 -23.7889 761 59 57 67 255
-163.879 -23.7889 761 73 73 89 255
-161.659 -23.8514 763 72 84 88 255
-159.009 -23.8514 763 74 85 92 255
-156.359 -23.8514 763 71 79 102 255
-153.709 -23.8514 763 71 77 72 255
-151.455 -23.9139 765 72 69 100 255
-148.798 -23.9139 765 59 77 88 255
-146.141 -23.9139 765 58 63 101 255
-143.483 -23.9139 765 75 76 104 255
-140.458 -23.8514 763 54 80 93 255
-137.808 -23.8514 763 21 14 77 255
-135.158 -23.8514 763 11 5 51 255
-132.508 -23.8514 763 8 6 25 255
-130.198 -23.9139 765 14 11 10 255
-127.874 -23.9764 767 23 28 45 255
-125.373 -24.0077 768 40 54 69 255
-122.706 -24.0077 768 54 73 78 255
-120.038 -24.0077 768 64 82 84 255
-117.371 -24.0077 768 71 82 74 255
-115.002 -24.0702 770 77 79 95 255
-112.328 -24.0702 770 82 85 83 255
-110.365 -24.2265 775 87 91 95 255
-107.395 -24.164 773 90 93 79 255
-104.711 -24.164 773 88 96 77 255
-102.29 -24.2265 775 80 90 88 255
-99.5978 -24.2265 775 64 67 39 255
-97.1561 -24.289 777 44 24 36 255
-94.4573 -24.289 777 37 41 53 255
-91.7585 -24.289 777 45 55 40 255
-89.289 -24.3515 779 54 64 52 255
-86.361 -24.289 777 62 76 44 255
-83.8775 -24.3515 779 67 58 43 255
-81.4844 -24.4453 782 68 64 72 255
-78.7682 -24.4453 782 73 84 71 255
-76.2466 -24.5078 784 80 94 77 255
-73.5235 -24.5078 784 87 89 88 255
-70.981 -24.5704 786 96 100 85 255
-68.4247 -24.6329 788 99 102 77 255
-65.6877 -24.6329 788 98 95 81 255
-62.9507 -24.6329 788 90 100 84 255
-60.2901 -24.6641 789 68 63 79 255
-57.4767 -24.6329 788 49 49 49 255
-54.7397 -24.6329 788 50 68 69 255
-52.0687 -24.6641 789 55 67 21 255
-49.3283 -24.6641 789 50 52 56 255
-46.5878 -24.6641 789 52 53 50 255
-43.9585 -24.7267 791 69 74 30 255
-41.2111 -24.7267 791 68 69 65 255
-38.4637 -24.7267 791 39 50 65 255
-35.7163 -24.7267 791 32 38 13 255
-33.0522 -24.7892 793 35 44 47 255
-30.3743 -24.8517 795 36 45 24 255
-27.613 -24.8517 795 44 47 70 255
-24.9142 -24.9142 797 49 43 37 255
-22.1738 -24.9455 798 56 56 65 255
-19.402 -24.9455 798 56 47 58 255
-16.672 -25.008 800 49 42 11 255
-13.8933 -25.008 800 47 47 42 255
-11.1425 -25.0705 802 51 45 22 255
-8.39852 -25.1956 806 42 48 16 255
-5.59901 -25.1956 806 32 49 41 255
-2.80645 -25.2581 808 34 25 20 255
0 -25.3206 810 55 13 76 255
2.82035 -25.3831 812 90 76 41 255
5.65459 -25.4456 814 111 98 65 255
8.48188 -25.4456 814 133 127 85 255
11.3509 -25.5394 817 162 162 145 255
14.2233 -25.6019 819 177 183 142 255
-178.724 -21.3402 768 161 169 188 255
-175.827 -21.3124 767 175 194 197 255
-172.26 -21.2012 763 134 142 155 255
-169.165 -21.1457 761 85 65 83 255
-166.522 -21.1457 761 76 82 96 255
-163.879 -21.1457 761 77 85 79 255
-161.236 -21.1457 761 71 83 95 255
-159.009 -21.2012 763 72 87 100 255
-156.359 -21.2012 763 80 95 116 255
-154.112 -21.2568 765 87 100 76 255
-151.455 -21.2568 765 86 100 106 255
-148.798 -21.2568 765 78 76 91 255
-137.447 -21.1457 761 34 37 71 255
-134.804 -21.1457 761 21 10 64 255
-132.508 -21.2012 763 22 15 40 255
-130.198 -21.2568 765 22 16 38 255
-127.874 -21.3124 767 30 18 56 255
-125.373 -21.3402 768 45 59 83 255
-122.706 -21.3402 768 59 76 88 255
-120.038 -21.3402 768 71 78 98 255
-117.677 -21.3957 770 79 90 89 255
-115.002 -21.3957 770 84 100 110 255
-112.328 -21.3957 770 90 98 124 255
-110.08 -21.4791 773 96 122 139 255
-107.673 -21.5347 775 97 111 107 255
-104.981 -21.5347 775 96 104 110 255
-102.554 -21.5902 777 88 104 86 255
-99.8549 -21.5902 777 77 81 85 255
-97.1561 -21.5902 777 85 77 71 255
-94.4573 -21.5902 777 105 121 85 255
-91.9947 -21.6458 779 110 125 105 255
-89.289 -21.6458 779 107 119 104 255
-86.5833 -21.6458 779 93 98 98 255
-83.9852 -21.6736 780 72 67 92 255
-81.4844 -21.7292 782 64 80 63 255
-78.7682 -21.7292 782 68 82 86 255
-76.2466 -21.7847 784 75 91 100 255
-73.7111 -21.8403 786 78 87 116 255
-71.1617 -21.8959 788 86 103 107 255
-68.4247 -21.8959 788 95 109 103 255
-65.6877 -21.8959 788 100 108 105 255
-62.9507 -21.8959 788 100 112 95 255
-60.2901 -21.9237 789 93 85 109 255
-57.4767 -21.8959 788 100 115 138 255
-54.6008 -21.8403 786 106 132 124 255
-52.0027 -21.8959 788 85 97 32 255
-49.2658 -21.8959 788 62 51 63 255
-46.5878 -21.9237 789 61 56 64 255
-43.8474 -21.9237 789 68 74 80 255
-41.1069 -21.9237 789 64 63 78 255
-38.3664 -21.9237 789 53 50 62 255
-35.7163 -21.9793 791 50 49 23 255
-33.0522 -22.0348 793 54 60 53 255
-30.3743 -22.0904 795 60 68 29 255
-27.613 -22.0904 795 65 63 71 255
-24.9142 -22.146 797 73 80 53 255
-22.2293 -22.2293 800 80 95 74 255
-19.4507 -22.2293 800 73 71 80 255
-16.7137 -22.2849 802 57 76 57 255
-13.9281 -22.2849 802 46 34 55 255
-11.1702 -22.3405 804 48 42 40 255
-8.39852 -22.3961 806 65 63 44 255
-5.59901 -22.3961 806 95 86 94 255
-2.80645 -22.4516 808 138 148 75 255
0 -22.6183 814 167 183 149 255
-178.491 -18.6483 767 180 195 177 255
-174.91 -18.5511 763 161 167 204 255
-171.808 -18.5024 761 124 138 147 255
-168.943 -18.4781 760 86 92 91 255
-166.522 -18.5024 761 81 82 106 255
-163.663 -18.4781 760 80 84 88 255
-161.236 -18.5024 761 81 92 104 255
-158.592 -18.5024 761 81 98 98 255
-156.359 -18.5511 763 76 76 112 255
-154.515 -18.6483 767 65 78 80 255
-137.808 -18.5511 763 65 89 94 255
-134.804 -18.5024 761 51 71 78 255
-132.508 -18.5511 763 29 2 46 255
-130.538 -18.6483 767 23 50 52 255
-128.041 -18.6726 768 36 62 65 255
-125.373 -18.6726 768 47 60 93 255
-122.706 -18.6726 768 59 76 101 255
-120.038 -18.6726 768 74 84 106 255
-117.677 -18.7213 770 83 96 119 255
-115.002 -18.7213 770 86 101 125 255
-112.328 -18.7213 770 87 104 134 255
-110.65 -18.8915 777 91 108 142 255
-107.951 -18.8915 777 100 102 123 255
-104.981 -18.8428 775 105 111 108 255
-102.554 -18.8915 777 102 101 98 255
-99.8549 -18.8915 777 96 95 100 255
-97.1561 -18.8915 777 98 96 114 255
-94.4573 -18.8915 777 108 128 122 255
-92.1128 -18.9644 780 124 137 137 255
-89.289 -18.9401 779 143 158 150 255
-86.6944 -18.9644 780 151 158 151 255
-84.2005 -19.013 782 134 139 126 255
-81.6928 -19.0617 784 122 106 87 255
-78.9697 -19.0617 784 128 143 98 255
-76.2466 -19.0617 784 131 119 101 255
-73.9924 -19.1832 789 126 119 112 255
-71.252 -19.1832 789 109 103 85 255
-68.5115 -19.1832 789 91 98 115 255
-65.771 -19.1832 789 91 105 141 255
-63.0306 -19.1832 789 93 92 128 255
-60.2901 -19.1832 789 124 149 156 255
-57.4767 -19.1589 788 161 207 211 255
-54.6008 -19.1103 786 122 135 158 255
-51.8708 -19.1103 786 74 74 62 255
-49.1407 -19.1103 786 67 69 69 255
-46.5878 -19.1832 789 73 71 64 255
-43.8474 -19.1832 789 76 77 91 255
-41.1069 -19.1832 789 68 75 78 255
-38.3664 -19.1832 789 59 71 60 255
-35.7163 -19.2318 791 54 60 43 255
-33.0522 -19.2805 793 57 63 72 255
-30.3743 -19.3291 795 68 68 50 255
-27.6825 -19.3777 797 78 87 93 255
-24.9455 -19.402 798 80 88 88 255
-22.2849 -19.4993 802 80 89 87 255
-19.4507 -19.4507 800 90 79 103 255
-16.7554 -19.5479 804 109 93 90 255
-13.9628 -19.5479 804 141 156 83 255
-11.198 -19.5965 806 150 142 107 255
-8.37768 -19.5479 804 134 121 86 255
-5.64069 -19.7424 812 146 153 141 255
-181.864 -16.0468 770 131 144 185 255
-178.491 -15.9843 767 171 182 188 255
-174.91 -15.9009 763 180 196 217 255
-171.808 -15.8592 761 142 151 147 255
-169.165 -15.8592 761 88 50 105 255
-166.522 -15.8592 761 85 95 117 255
-163.879 -15.8592 761 85 96 94 255
-161.236 -15.8592 761 83 85 111 255
-158.592 -15.8592 761 84 88 99 255
-156.359 -15.9009 763 82 97 106 255
-153.709 -15.9009 763 80 87 93 255
-138.53 -15.9843 767 108 90 131 255
-135.512 -15.9426 765 104 104 97 255
-133.202 -15.9843 767 107 95 60 255
-130.708 -16.0051 768 116 117 84 255
-128.041 -16.0051 768 124 132 99 255
-125.373 -16.0051 768 129 133 116 255
-122.706 -16.0051 768 133 132 123 255
-120.038 -16.0051 768 137 139 118 255
-117.371 -16.0051 768 134 145 137 255
-114.703 -16.0051 768 136 145 148 255
-112.765 -16.1093 773 137 136 119 255
-110.65 -16.1927 777 129 110 128 255
-107.951 -16.1927 777 124 126 125 255
-105.252 -16.1927 777 121 121 121 255
-102.554 -16.1927 777 116 118 121 255
-99.8549 -16.1927 777 108 109 68 255
-97.1561 -16.1927 777 118 110 118 255
-94.7004 -16.2344 779 153 166 148 255
-92.349 -16.2969 782 169 174 149 255
-89.289 -16.2344 779 162 177 166 255
-86.9167 -16.2969 782 165 178 173 255
-69.2062 -16.6095 797 152 155 140 255
-65.9378 -16.4844 791 164 178 204 255
-63.1904 -16.4844 791 176 192 196 255
-60.2901 -16.4428 789 174 185 217 255
-57.4767 -16.4219 788 165 197 223 255
-54.6008 -16.3802 786 103 105 151 255
-51.8708 -16.3802 786 57 46 79 255
-49.1407 -16.3802 786 57 56 75 255
-46.5288 -16.4219 788 58 65 66 255
-43.8474 -16.4428 789 59 68 73 255
-41.1069 -16.4428 789 52 65 74 255
-38.3664 -16.4428 789 50 53 66 255
-35.7163 -16.4844 791 37 49 49 255
-33.1356 -16.5678 795 37 51 91 255
-30.4507 -16.6095 797 63 32 51 255
-27.6825 -16.6095 797 88 87 113 255
-24.9142 -16.6095 797 127 125 107 255
-22.3405 -16.7554 804 161 174 115 255
-19.4993 -16.7137 802 169 183 138 255
-16.797 -16.797 806 171 172 116 255
-13.9628 -16.7554 804 173 171 112 255
-11.198 -16.797 806 154 151 139 255
-184.538 -13.3723 770 104 109 99 255
-181.864 -13.3723 770 111 119 141 255
-178.724 -13.3376 768 114 131 158 255
-174.91 -13.2508 763 156 217 212 255
-172.26 -13.2508 763 146 156 138 255
-169.165 -13.216 761 97 83 115 255
-166.96 -13.2508 763 104 108 113 255
-164.31 -13.2508 763 119 131 117 255
-161.236 -13.216 761 131 156 131 255
-158.592 -13.216 761 139 153 119 255
-156.359 -13.2508 763 136 139 137 255
-153.709 -13.2508 763 133 148 127 255
-138.711 -13.3376 768 149 158 136 255
-136.044 -13.3376 768 150 162 125 255
-133.202 -13.3202 767 151 168 117 255
-130.708 -13.3376 768 156 166 139 255
-128.374 -13.3723 770 163 171 138 255
-125.7 -13.3723 770 153 167 143 255
-113.349 -13.4939 777 132 133 112 255
-63.1904 -13.737 791 179 196 248 255
-60.2901 -13.7023 789 192 208 242 255
-57.4767 -13.6849 788 138 169 186 255
-54.7397 -13.6849 788 77 53 124 255
-52.0027 -13.6849 788 56 68 65 255
-49.2658 -13.6849 788 51 52 71 255
-46.5878 -13.7023 789 49 62 57 255
-43.9585 -13.737 791 46 50 33 255
-41.2111 -13.737 791 36 47 66 255
-38.5609 -13.7718 793 23 24 52 255
-35.8969 -13.8065 795 52 58 68 255
-33.219 -13.8412 797 113 100 94 255
-178.724 -10.6701 768 117 116 130 255
-174.91 -10.6006 763 121 147 162 255
-172.26 -10.6006 763 122 132 132 255
-169.61 -10.6006 763 115 125 113 255
-166.96 -10.6006 763 111 103 91 255
-164.31 -10.6006 763 115 118 125 255
-161.659 -10.6006 763 120 144 148 255
-159.009 -10.6006 763 117 128 134 255
-60.2901 -10.9618 789 191 219 224 255
-57.5497 -10.9618 789 131 137 153 255
-54.7397 -10.9479 788 74 93 96 255
-52.0027 -10.9479 788 43 55 66 255
-49.2658 -10.9479 788 34 54 65 255
-46.5878 -10.9618 789 32 45 51 255
-43.9585 -10.9896 791 15 36 2 255
-41.3153 -11.0174 793 38 5 79 255
-38.6582 -11.0452 795 107 105 78 255
-169.61 -7.95046 763 114 125 119 255
-166.96 -7.95046 763 103 109 98 255
-60.2901 -8.22138 789 138 146 179 255
-57.4767 -8.21096 788 123 137 145 255
-54.7397 -8.21096 788 76 69 98 255
-52.0027 -8.21096 788 42 42 52 255
-49.2658 -8.21096 788 45 43 58 255
-46.5878 -8.22138 789 25 35 56 255
-43.9585 -8.24222 791 53 2 58 255
-41.4195 -8.2839 795 143 187 142 255
-60.2137 -5.47397 788 89 108 106 255
-57.4767 -5.47397 788 83 115 84 255
-54.7397 -5.47397 788 57 50 64 255
-52.0027 -5.47397 788 40 39 15 255
-49.2658 -5.47397 788 35 45 27 255
-46.5878 -5.48092 789 58 1 27 255
-43.9585 -5.49481 791 130 158 143 255
-62.7909 -2.73004 786 77 74 88 255
-60.0609 -2.73004 786 71 68 76 255
-57.3308 -2.73004 786 56 51 58 255
-54.6008 -2.73004 786 45 45 29 255
-51.8708 -2.73004 786 46 42 23 255
-49.2658 -2.73699 788 43 46 3 255
-46.5878 -2.74046 789 96 128 93 255
-62.9507 0 788 107 105 102 255
-60.0609 0 786 74 86 96 255
-57.4767 0 788 55 50 66 255
-54.6008 0 786 41 35 40 255
-51.8708 0 786 35 33 21 255
-49.2658 0 788 72 55 62 255
-46.5878 0 789 136 153 171 255
-65.3542 2.72309 784 154 162 167 255
-62.7909 2.73004 786 117 129 93 255
-59.9081 2.72309 784 73 83 101 255
-57.185 2.72309 784 41 34 43 255
-54.6008 2.73004 786 20 32 46 255
-51.8708 2.73004 786 35 22 1 255
-49.2658 2.73699 788 104 119 157 255
-68.4247 5.47397 788 177 188 184 255
-65.3542 5.44619 784 133 158 160 255
-62.6311 5.44619 784 88 105 71 255
-59.9081 5.44619 784 64 74 89 255
-57.185 5.44619 784 32 44 42 255
-54.6008 5.46008 786 9 12 29 255
-52.0027 5.47397 788 62 91 71 255
-68.251 8.19012 786 138 143 125 255
-65.3542 8.16928 784 98 110 120 255
-62.6311 8.16928 784 77 89 71 255
-59.9081 8.16928 784 59 67 65 255
-57.185 8.16928 784 31 28 22 255
-54.6008 8.19012 786 49 46 4 255
-70.8004 10.8924 784 148 157 168 255
-67.9037 10.8646 782 103 131 82 255
-65.1875 10.8646 782 76 80 97 255
-62.4714 10.8646 782 65 80 64 255
-59.7552 10.8646 782 50 50 64 255
-57.0391 10.8646 782 33 26 33 255
-54.4619 10.8924 784 79 113 64 255
-70.8004 13.6155 784 101 114 134 255
-67.9037 13.5807 782 74 78 67 255
-65.0208 13.546 780 60 60 67 255
-62.4714 13.5807 782 46 49 48 255
-59.7552 13.5807 782 20 14 43 255
-57.0391 13.5807 782 65 67 78 255
-54.3229 13.5807 782 143 170 120 255
-73.1484 16.2552 780 52 53 89 255
-70.4392 16.2552 780 49 46 87 255
-67.73 16.2552 780 48 41 58 255
-65.1875 16.2969 782 37 27 38 255
-62.3116 16.2552 780 27 21 22 255
-59.7552 16.2969 782 46 47 8 255
-57.0391 16.2969 782 102 108 115 255
-75.5658 18.8915 777 72 74 42 255
-72.8671 18.8915 777 52 28 39 255
-70.3489 18.9401 779 45 44 54 255
-67.6432 18.9401 779 42 45 74 255
-64.9374 18.9401 779 26 34 48 255
-62.3116 18.9644 780 22 19 1 255
-59.7552 19.013 782 84 89 50 255
-78.2646 21.5902 777 71 74 90 255
-75.3713 21.5347 775 51 21 31 255
-72.6795 21.5347 775 41 43 51 255
-70.1683 21.5902 777 41 47 51 255
-67.4695 21.5902 777 41 37 49 255
-64.7707 21.5902 777 31 28 51 255
-62.0719 21.5902 777 50 34 44 255
-82.3701 23.9139 765 93 110 116 255
-80.0256 24.0077 768 46 48 67 255
-77.3581 24.0077 768 29 23 34 255
-74.8851 24.0702 770 35 30 53 255
-72.3982 24.1327 772 33 32 45 255
-69.9877 24.2265 775 36 31 46 255
-67.2958 24.2265 775 31 28 35 255
-64.604 24.2265 775 30 25 41 255
-61.9122 24.2265 775 81 112 90 255
-84.5826 26.4321 761 97 123 110 255
-82.5854 26.6405 767 46 63 79 255
-80.0256 26.6752 768 24 19 1 255
-77.0559 26.571 765 26 18 34 255
-74.3988 26.571 765 23 18 42 255
-72.2106 26.7447 770 27 26 24 255
-69.9877 26.9183 775 36 35 43 255
-67.4695 26.9878 777 42 38 61 255
-64.604 26.9183 775 73 87 17 255
-87.6843 29.2281 765 97 95 86 255
-85.0272 29.2281 765 66 93 102 255
-82.3701 29.2281 765 36 39 26 255
-79.5046 29.1517 763 21 26 3 255
-76.8544 29.1517 763 20 20 23 255
-74.2043 29.1517 763 15 21 42 255
-71.9293 29.3045 767 25 31 21 255
-69.8071 29.5338 773 47 46 53 255
-67.4695 29.6866 777 58 59 65 255
-87.2258 31.7185 761 7 11 44 255
-84.8049 31.8018 763 13 22 43 255
-82.1548 31.8018 763 9 26 32 255
-79.5046 31.8018 763 9 24 11 255
-76.653 31.7185 761 22 17 34 255
-74.2043 31.8018 763 34 17 56 255
-71.9293 31.9686 767 48 50 58 255
-69.9877 32.302 775 64 65 79 255
-67.4695 32.3854 777 77 69 63 255
-91.7828 34.0908 755 87 98 117 255
-89.2786 34.1359 756 27 5 22 255
-86.6527 34.1359 756 15 20 47 255
-84.5826 34.3617 761 21 16 23 255
-82.1548 34.452 763 21 21 35 255
-79.5046 34.452 763 30 13 31 255
-76.8544 34.452 763 42 53 48 255
-74.2043 34.452 763 53 55 73 255
-72.023 34.6778 768 70 92 75 255
-70.3489 35.1744 779 86 90 106 255
-93.78 36.47 750 108 121 135 255
-91.4181 36.5673 752 80 81 108 255
-88.8062 36.5673 752 50 36 3 255
-86.3089 36.6159 753 43 41 31 255
-83.9157 36.7131 755 39 27 47 255
-81.8317 36.9563 760 45 58 21 255
-79.2962 37.0049 761 55 69 27 255
-76.653 37.0049 761 68 65 59 255
-74.2043 37.1021 763 86 81 76 255
-72.2106 37.4425 770 95 92 78 255
-70.4392 37.9288 780 96 95 108 255
-96.385 39.075 750 105 107 130 255
-93.78 39.075 750 94 86 113 255
-91.175 39.075 750 87 84 110 255
-88.57 39.075 750 72 79 26 255
-85.965 39.075 750 58 73 41 255
-83.5823 39.1792 752 54 60 64 255
-81.6164 39.4918 758 65 70 42 255
-79.2962 39.6481 761 78 90 34 255
-76.653 39.6481 761 88 95 69 255
-74.2043 39.7523 763 98 89 73 255
-98.726 41.5689 748 156 202 165 255
-95.7424 41.4021 745 130 99 115 255
-93.4049 41.5133 747 104 99 114 255
-90.9319 41.5689 748 89 77 103 255
-88.57 41.68 750 65 79 42 255
-85.965 41.68 750 60 73 56 255
-84.0269 42.0134 756 63 59 83 255
-81.401 42.0134 756 77 94 92 255
-79.192 42.2357 760 87 86 53 255
-76.8544 42.4025 763 91 90 68 255
-98.726 44.1669 748 120 120 169 255
-95.7424 43.9898 745 150 168 125 255
-93.4049 44.1079 747 153 163 142 255
-90.8103 44.1079 747 88 55 95 255
-88.57 44.285 750 56 74 46 255
-85.965 44.285 750 42 47 39 255
-83.36 44.285 750 49 41 92 255
-80.5396 44.1669 748 79 92 90 255
-98.99 46.89 750 109 106 102 255
-95.9995 46.7024 747 130 147 145 255
-93.5299 46.765 748 141 153 164 255
-90.8103 46.7024 747 125 54 103 255
-88.57 46.89 750 96 108 102 255
-85.965 46.89 750 58 34 39 255
-90.324 49.033 743 112 97 106 255
-87.7433 49.033 743 114 141 132 255
