ply
format ascii 1.0
element vertex 681
property float x
property float y
property float z
property uchar red
property uchar green
property uchar blue
property uchar alpha
end_header
-34.4694 -112.025 827 159 173 164 255
-37.3418 -109.153 827 139 169 201 255
-34.386 -108.889 825 144 167 185 255
-31.5969 -109.153 827 98 115 154 255
-40.2143 -106.281 827 177 199 175 255
-37.2515 -106.023 825 165 191 209 255
-34.3026 -105.766 823 145 175 195 255
-31.4441 -105.766 823 109 123 100 255
-28.5855 -105.766 823 94 95 106 255
-25.7895 -106.023 825 115 129 86 255
-43.0867 -103.408 827 223 212 224 255
-40.0197 -102.908 823 185 199 226 255
-37.1612 -102.908 823 164 192 207 255
-34.3026 -102.908 823 130 155 189 255
-31.4441 -102.908 823 101 106 102 255
-28.5855 -102.908 823 95 93 102 255
-25.727 -102.908 823 112 136 115 255
-42.9825 -100.292 825 218 221 234 255
-39.9225 -99.8062 821 187 208 233 255
-37.0709 -99.8062 821 148 164 179 255
-34.2193 -99.8062 821 114 140 156 255
-31.3677 -99.8062 821 75 69 79 255
-28.5161 -99.8062 821 62 84 105 255
-25.727 -100.049 823 67 66 101 255
-22.9796 -100.536 827 99 142 135 255
-42.8783 -97.1908 823 183 214 229 255
-39.9225 -96.9546 821 143 169 199 255
-36.9806 -96.7184 819 115 143 129 255
-34.1359 -96.7184 819 67 78 103 255
-31.2913 -96.7184 819 53 70 69 255
-28.5161 -96.9546 821 58 68 81 255
-25.727 -97.1908 823 62 53 70 255
-23.0351 -97.8994 829 74 99 103 255
-20.253 -98.3717 833 107 100 132 255
-42.7741 -94.103 821 119 124 149 255
-39.8252 -93.8738 819 55 79 123 255
-36.8903 -93.6445 817 59 76 80 255
-34.1359 -93.8738 819 50 54 76 255
-31.2913 -93.8738 819 52 63 73 255
-28.4466 -93.8738 819 49 21 68 255
-25.7895 -94.5615 825 49 54 83 255
-23.0351 -95.02 829 71 78 27 255
-45.5146 -91.0291 819 185 254 246 255
-42.6699 -91.0291 819 118 122 103 255
-39.728 -90.8068 817 42 58 55 255
-36.8903 -90.8068 817 51 45 55 255
-34.0526 -90.8068 817 44 48 54 255
-31.2148 -90.8068 817 44 53 52 255
-28.4466 -91.0291 819 47 53 68 255
-25.7895 -91.696 825 54 47 65 255
-23.0351 -92.1406 829 100 111 53 255
-45.4034 -87.9691 817 178 234 226 255
-42.5657 -87.9691 817 109 99 123 255
-39.6307 -87.7538 815 44 55 66 255
-36.8 -87.7538 815 48 43 58 255
-34.0526 -87.9691 817 38 38 39 255
-31.2148 -87.9691 817 38 47 35 255
-28.4466 -88.1845 819 41 53 74 255
-25.852 -89.0458 827 66 79 25 255
-45.2923 -84.923 815 122 146 159 255
-42.4094 -84.8188 814 61 58 79 255
-39.5821 -84.8188 814 44 50 74 255
-36.7548 -84.8188 814 39 39 60 255
-33.9275 -84.8188 814 28 39 41 255
-31.1384 -84.923 815 32 36 47 255
-28.5161 -85.5482 821 39 50 83 255
-25.852 -86.1734 827 84 82 62 255
-23.0351 -86.3818 829 133 133 105 255
-45.2367 -81.9915 814 121 120 125 255
-42.3052 -81.7901 812 49 44 45 255
-39.4849 -81.7901 812 50 53 62 255
-36.7548 -81.9915 814 37 41 48 255
-33.9275 -81.9915 814 30 29 25 255
-31.1002 -81.9915 814 37 41 62 255
-28.5161 -82.6966 821 46 50 82 255
-25.7895 -83.0995 825 90 114 109 255
-47.9459 -78.9697 812 199 231 206 255
-45.1255 -78.9697 812 97 73 101 255
-42.3052 -78.9697 812 41 46 54 255
-39.4849 -78.9697 812 46 46 51 255
-36.6645 -78.9697 812 30 34 36 255
-33.9275 -79.1642 814 29 36 24 255
-31.1002 -79.1642 814 36 39 44 255
-28.3771 -79.456 817 83 123 96 255
-25.5394 -79.456 817 128 113 91 255
-50.7662 -76.1494 812 218 250 247 255
-47.9459 -76.1494 812 166 188 167 255
-45.0144 -75.9618 810 75 29 53 255
-42.201 -75.9618 810 45 52 63 255
-39.3876 -75.9618 810 46 40 46 255
-36.6645 -76.1494 812 40 45 32 255
-33.9275 -76.3369 814 25 42 47 255
-31.1002 -76.3369 814 57 1 26 255
-28.3077 -76.4307 815 127 183 120 255
-50.6412 -73.1484 810 207 217 229 255
-47.8278 -73.1484 810 115 151 149 255
-44.9033 -72.9678 808 55 26 40 255
-42.0968 -72.9678 808 51 46 66 255
-39.3876 -73.1484 810 34 35 45 255
-36.6645 -73.329 812 29 38 37 255
-33.8442 -73.329 812 18 25 42 255
-31.1002 -73.5096 814 76 59 60 255
-53.5866 -70.5087 812 206 245 235 255
-50.5162 -70.1613 808 182 186 191 255
-47.7097 -70.1613 808 88 79 122 255
-44.7921 -69.9877 806 41 41 27 255
-41.9926 -69.9877 806 48 41 55 255
-39.2903 -70.1613 808 40 36 23 255
-36.5742 -70.335 810 35 35 36 255
-33.8442 -70.5087 812 22 3 33 255
-31.0238 -70.5087 812 94 155 107 255
-53.5866 -67.6883 812 211 228 226 255
-50.3911 -67.1882 806 147 175 171 255
-47.5916 -67.1882 806 69 46 52 255
-44.7921 -67.1882 806 33 40 32 255
-42.0968 -67.3549 808 44 40 46 255
-39.2903 -67.3549 808 40 36 17 255
-36.5742 -67.5216 810 20 34 18 255
-33.8442 -67.6883 812 50 20 71 255
-31.0238 -67.6883 812 142 179 129 255
-53.1906 -64.3886 806 197 178 192 255
-50.2661 -64.2289 804 140 163 164 255
-47.4735 -64.2289 804 68 19 9 255
-44.681 -64.2289 804 28 42 41 255
-41.9926 -64.3886 806 35 33 58 255
-39.1931 -64.3886 806 35 25 38 255
-36.5742 -64.7082 810 22 14 17 255
-33.7608 -64.7082 810 82 113 74 255
-30.9474 -64.7082 810 163 162 156 255
-55.8512 -61.4363 804 201 237 237 255
-53.0586 -61.4363 804 148 120 152 255
-50.141 -61.2835 802 94 143 116 255
-47.4735 -61.4363 804 49 23 4 255
-44.681 -61.4363 804 31 32 22 255
-41.9926 -61.5891 806 34 39 41 255
-39.1931 -61.5891 806 22 33 35 255
-36.3936 -61.5891 806 50 1 53 255
-33.6774 -61.742 808 128 172 98 255
-58.6438 -58.6438 804 164 172 201 255
-55.7123 -58.4979 802 150 186 207 255
-52.9267 -58.4979 802 130 115 126 255
-50.016 -58.352 800 82 89 45 255
-47.3554 -58.4979 802 39 33 4 255
-44.5698 -58.4979 802 29 34 14 255
-41.8884 -58.6438 804 29 41 26 255
-39.0958 -58.6438 804 19 19 25 255
-36.3033 -58.6438 804 78 72 111 255
-58.4979 -55.7123 802 166 177 181 255
-55.5733 -55.5733 800 147 178 179 255
-52.7947 -55.5733 800 72 46 74 255
-50.016 -55.5733 800 35 42 42 255
-47.2373 -55.5733 800 43 41 25 255
-44.5698 -55.7123 802 39 48 42 255
-41.8884 -55.8512 804 46 36 49 255
-39.0958 -55.8512 804 60 42 14 255
-36.3936 -55.9901 806 117 148 145 255
-61.1307 -52.7947 800 157 168 152 255
-58.352 -52.7947 800 162 192 206 255
-55.4344 -52.6627 798 114 131 147 255
-52.5967 -52.5967 797 48 42 28 255
-49.8284 -52.5967 797 44 54 61 255
-47.1192 -52.6627 798 42 45 43 255
-44.4587 -52.7947 800 44 36 55 255
-41.7842 -52.9267 802 50 66 61 255
-39.0958 -53.0586 804 87 74 49 255
-36.3033 -53.0586 804 144 165 137 255
-60.9778 -49.891 798 174 196 167 255
-58.1332 -49.8284 797 183 216 226 255
-55.3649 -49.8284 797 112 99 120 255
-52.5967 -49.8284 797 46 42 24 255
-49.8284 -49.8284 797 41 24 46 255
-47.0602 -49.8284 797 39 24 22 255
-44.3475 -49.891 798 55 55 49 255
-41.68 -50.016 800 65 56 32 255
-38.9986 -50.141 802 103 130 118 255
-63.7496 -47.1192 798 139 152 184 255
-60.9014 -47.0602 797 130 156 185 255
-58.1332 -47.0602 797 138 172 185 255
-55.226 -46.9421 795 83 83 96 255
-52.4647 -46.9421 795 33 33 20 255
-49.7034 -46.9421 795 37 33 54 255
-47.0602 -47.0602 797 42 33 29 255
-44.4587 -47.2373 800 45 65 46 255
-41.68 -47.2373 800 82 74 43 255
-38.9013 -47.2373 800 135 154 144 255
-63.6697 -44.2919 797 108 124 133 255
-60.7486 -44.1808 795 73 64 141 255
-57.9873 -44.1808 795 87 137 138 255
-55.226 -44.1808 795 59 54 73 255
-52.4647 -44.1808 795 24 39 39 255
-49.7034 -44.1808 795 31 44 57 255
-47.0602 -44.2919 797 39 42 48 255
-44.3475 -44.3475 798 29 26 25 255
-41.5758 -44.3475 798 93 133 104 255
-63.5099 -41.4195 795 100 112 104 255
-60.7486 -41.4195 795 70 65 96 255
-57.8414 -41.3153 793 84 116 101 255
-55.0871 -41.3153 793 60 68 75 255
-52.4647 -41.4195 795 29 36 64 255
-49.8284 -41.5237 797 31 37 55 255
-47.0602 -41.5237 797 29 25 21 255
-44.3475 -41.5758 798 59 51 46 255
-41.5758 -41.5758 798 135 179 147 255
-63.1904 -38.4637 791 92 101 94 255
-60.4429 -38.4637 791 59 64 87 255
-57.8414 -38.5609 793 71 95 94 255
-55.0871 -38.5609 793 68 76 90 255
-52.3327 -38.5609 793 51 56 72 255
-49.7034 -38.6582 795 41 46 57 255
-47.0602 -38.7555 797 20 23 5 255
-44.3475 -38.8041 798 71 60 99 255
-66.1045 -35.8066 793 60 58 100 255
-63.1904 -35.7163 791 55 71 79 255
-60.4429 -35.7163 791 59 64 68 255
-57.6955 -35.7163 791 70 72 102 255
-54.9481 -35.7163 791 71 81 88 255
-52.3327 -35.8066 793 55 54 73 255
-49.7034 -35.8969 795 41 42 49 255
-46.824 -35.8066 793 18 9 4 255
-44.2919 -35.9872 797 87 128 131 255
-68.6852 -32.9689 791 101 108 85 255
-65.9378 -32.9689 791 50 65 77 255
-63.0306 -32.8855 789 53 78 88 255
-60.2901 -32.8855 789 61 61 63 255
-57.5497 -32.8855 789 60 66 88 255
-54.9481 -32.9689 791 59 73 86 255
-52.3327 -33.0522 793 51 60 60 255
-49.7034 -33.1356 795 28 55 30 255
-46.9421 -33.1356 795 14 3 11 255
-44.1808 -33.1356 795 98 169 164 255
-71.252 -30.1451 789 120 141 192 255
-68.5115 -30.1451 789 72 55 46 255
-65.771 -30.1451 789 45 63 67 255
-63.0306 -30.1451 789 67 74 102 255
-60.2137 -30.1069 788 76 69 75 255
-57.5497 -30.1451 789 68 77 84 255
-54.9481 -30.2215 791 56 62 83 255
-52.3327 -30.2979 793 46 51 64 255
-49.5784 -30.2979 793 38 49 37 255
-46.9421 -30.3743 795 24 2 27 255
-44.1808 -30.3743 795 96 152 178 255
-73.9924 -27.4046 789 119 137 133 255
-71.252 -27.4046 789 77 105 130 255
-68.5115 -27.4046 789 57 54 65 255
-65.6877 -27.3699 788 44 48 49 255
-62.9507 -27.3699 788 76 124 109 255
-60.2137 -27.3699 788 93 114 95 255
-57.5497 -27.4046 789 74 70 96 255
-54.8092 -27.4046 789 61 64 71 255
-52.2007 -27.4741 791 48 33 67 255
-49.5784 -27.5435 793 34 39 55 255
-46.824 -27.5435 793 16 4 17 255
-44.0697 -27.5435 793 94 152 177 255
-76.6356 -24.6329 788 129 169 188 255
-73.8986 -24.6329 788 80 73 101 255
-71.1617 -24.6329 788 59 69 86 255
-68.4247 -24.6329 788 59 67 66 255
-65.6877 -24.6329 788 43 45 20 255
-63.0306 -24.6641 789 89 134 133 255
-60.2901 -24.6641 789 133 165 161 255
-57.5497 -24.6641 789 97 78 104 255
-54.7397 -24.6329 788 73 93 89 255
-52.0687 -24.6641 789 61 68 78 255
-49.4533 -24.7267 791 44 46 72 255
-46.5878 -24.6641 789 20 3 9 255
-79.3726 -21.8959 788 173 209 203 255
-76.6356 -21.8959 788 82 89 83 255
-73.7111 -21.8403 786 31 55 76 255
-71.1617 -21.8959 788 54 63 71 255
-68.4247 -21.8959 788 49 55 55 255
-65.771 -21.9237 789 36 24 7 255
-63.0306 -21.9237 789 89 122 158 255
-60.4429 -21.9793 791 153 200 223 255
-57.6955 -21.9793 791 131 131 132 255
-54.8092 -21.9237 789 111 121 144 255
-52.0687 -21.9237 789 78 86 49 255
-49.3283 -21.9237 789 41 41 86 255
-46.5878 -21.9237 789 21 20 26 255
-43.7918 -21.8959 788 71 102 146 255
-82.1096 -19.1589 788 174 207 203 255
-79.1712 -19.1103 786 76 103 124 255
-76.4411 -19.1103 786 22 21 29 255
-73.7111 -19.1103 786 48 53 59 255
-71.1617 -19.1589 788 60 67 46 255
-68.5115 -19.1832 789 57 58 44 255
-65.771 -19.1832 789 30 40 18 255
-63.1904 -19.2318 791 40 77 83 255
-60.4429 -19.2318 791 110 143 210 255
-57.6955 -19.2318 791 158 192 204 255
-54.7397 -19.1589 788 151 152 183 255
-52.0027 -19.1589 788 114 127 58 255
-49.2658 -19.1589 788 65 78 69 255
-46.5288 -19.1589 788 31 19 39 255
-43.7918 -19.1589 788 55 48 56 255
-84.6312 -16.3802 786 183 211 209 255
-81.9012 -16.3802 786 73 102 96 255
-78.9697 -16.3386 784 4 2 29 255
-76.2466 -16.3386 784 28 23 61 255
-73.5235 -16.3386 784 49 62 48 255
-71.1617 -16.4219 788 42 59 49 255
-68.5115 -16.4428 789 24 47 21 255
-65.9378 -16.4844 791 47 81 68 255
-63.1904 -16.4844 791 55 41 28 255
-60.4429 -16.4844 791 82 96 145 255
-57.5497 -16.4428 789 165 219 251 255
-54.7397 -16.4219 788 191 219 222 255
-51.8708 -16.3802 786 158 182 156 255
-49.1407 -16.3802 786 88 89 88 255
-46.5288 -16.4219 788 45 47 27 255
-43.7918 -16.4219 788 24 26 1 255
-87.5836 -13.6849 788 173 201 217 255
-84.6312 -13.6502 786 85 145 149 255
-81.6928 -13.6155 784 23 2 14 255
-78.7682 -13.5807 782 40 30 23 255
-76.2466 -13.6155 784 50 63 49 255
-73.5235 -13.6155 784 52 55 18 255
-70.981 -13.6502 786 26 11 34 255
-68.5115 -13.7023 789 63 89 85 255
-65.771 -13.7023 789 145 169 136 255
-63.1904 -13.737 791 152 166 107 255
-60.4429 -13.737 791 127 92 74 255
-57.5497 -13.7023 789 136 186 224 255
-54.7397 -13.6849 788 154 182 222 255
-51.8708 -13.6502 786 147 172 196 255
-49.1407 -13.6502 786 109 107 128 255
-46.4107 -13.6502 786 57 38 16 255
-43.6806 -13.6502 786 19 21 32 255
-41.0548 -13.6849 788 55 45 85 255
-89.8621 -10.8924 784 185 215 215 255
-87.139 -10.8924 784 151 174 187 255
-84.4159 -10.8924 784 64 86 50 255
-81.4844 -10.8646 782 29 29 42 255
-78.5668 -10.8368 780 46 41 37 255
-76.0521 -10.8646 782 49 52 46 255
-73.336 -10.8646 782 40 5 1 255
-70.8004 -10.8924 784 91 106 80 255
-68.4247 -10.9479 788 155 175 150 255
-57.5497 -10.9618 789 135 140 171 255
-54.6008 -10.9202 786 109 122 171 255
-51.8708 -10.9202 786 115 124 169 255
-49.1407 -10.9202 786 104 109 144 255
-46.4107 -10.9202 786 73 77 57 255
-43.7918 -10.9479 788 46 34 52 255
-41.1069 -10.9618 789 27 4 32 255
-91.9947 -8.11718 779 201 243 216 255
-89.289 -8.11718 779 156 177 191 255
-86.6944 -8.1276 780 59 81 126 255
-83.9852 -8.1276 780 7 7 1 255
-81.276 -8.1276 780 25 34 52 255
-78.5668 -8.1276 780 41 44 24 255
-76.0521 -8.14844 782 26 10 50 255
-73.1484 -8.1276 780 83 107 59 255
-54.7397 -8.21096 788 103 102 126 255
-51.8708 -8.19012 786 112 126 172 255
-49.0157 -8.16928 784 138 173 165 255
-46.2926 -8.16928 784 136 145 116 255
-43.6806 -8.19012 786 85 78 62 255
-41.0548 -8.21096 788 28 14 53 255
-38.3664 -8.22138 789 45 67 117 255
-94.7004 -5.41145 779 193 239 242 255
-91.9947 -5.41145 779 155 164 155 255
-89.0597 -5.39756 777 97 123 154 255
-86.361 -5.39756 777 47 4 62 255
-83.6622 -5.39756 777 26 39 13 255
-81.1718 -5.41145 779 41 46 49 255
-78.4661 -5.41145 779 23 15 10 255
-54.7397 -5.47397 788 147 126 111 255
-51.8708 -5.46008 786 166 187 205 255
-49.0157 -5.44619 784 188 211 209 255
-46.2926 -5.44619 784 148 164 141 255
-43.5695 -5.44619 784 97 84 90 255
-40.9506 -5.46008 786 55 44 61 255
-38.3178 -5.47397 788 36 2 47 255
-94.4573 -2.69878 777 152 165 192 255
-91.7585 -2.69878 777 93 102 109 255
-89.0597 -2.69878 777 58 67 89 255
-86.361 -2.69878 777 27 11 56 255
-83.6622 -2.69878 777 50 60 25 255
-81.1718 -2.70573 779 47 58 38 255
-51.8708 -2.73004 786 166 180 213 255
-49.1407 -2.73004 786 206 242 239 255
-46.2926 -2.72309 784 185 186 167 255
-43.5695 -2.72309 784 126 125 124 255
-40.8464 -2.72309 784 76 87 67 255
-38.1233 -2.72309 784 30 3 4 255
-35.5808 -2.73699 788 86 101 151 255
-97.1561 0 777 174 201 220 255
-94.2142 0 775 96 73 107 255
-91.5223 0 775 54 74 124 255
-88.8305 0 775 26 2 31 255
-86.1387 0 775 30 45 46 255
-83.6622 0 777 62 82 51 255
-81.276 0 780 82 84 28 255
-51.7388 0 784 165 174 219 255
-49.0157 0 784 207 248 243 255
-46.2926 0 784 182 187 200 255
-43.4583 0 782 133 142 127 255
-40.7422 0 782 91 97 97 255
-38.0261 0 782 40 8 37 255
-35.4002 0 784 67 54 100 255
-96.906 2.69183 775 132 134 138 255
-93.971 2.68489 773 74 59 70 255
-91.1681 2.68141 772 57 51 98 255
-88.4866 2.68141 772 46 10 22 255
-85.9164 2.68489 773 52 72 27 255
-83.4468 2.69183 775 64 51 64 255
-51.7388 2.72309 784 146 137 197 255
-49.0157 2.72309 784 187 215 235 255
-46.2926 2.72309 784 192 202 210 255
-43.4583 2.71615 782 154 162 152 255
-40.638 2.7092 780 101 97 110 255
-38.0261 2.71615 782 41 21 36 255
-35.3099 2.71615 782 31 25 48 255
-99.3408 5.36977 773 164 173 204 255
-96.5309 5.36283 772 97 74 94 255
-93.6063 5.34893 770 73 89 68 255
-90.9319 5.34893 770 57 32 80 255
-88.2574 5.34893 770 46 39 19 255
-85.8052 5.36283 772 45 59 38 255
-83.1238 5.36283 772 74 94 50 255
-49.0157 5.44619 784 165 214 216 255
-46.1745 5.43229 782 197 203 212 255
-43.3472 5.4184 780 159 177 200 255
-40.5859 5.41145 779 108 123 105 255
-37.9288 5.4184 780 60 51 34 255
-35.1744 5.41145 779 19 10 55 255
-101.63 8.0234 770 191 216 232 255
-99.2123 8.04424 772 125 130 149 255
-96.2808 8.0234 770 79 88 96 255
-93.6063 8.0234 770 75 71 90 255
-90.9319 8.0234 770 61 69 67 255
-88.2574 8.0234 770 35 47 19 255
-85.5829 8.0234 770 60 73 84 255
-82.9085 8.0234 770 114 130 65 255
-48.7656 8.1276 780 154 177 182 255
-46.0564 8.1276 780 189 207 214 255
-43.2916 8.11718 779 140 141 169 255
-40.4817 8.09634 777 93 89 113 255
-37.8802 8.11718 779 79 79 69 255
-35.1744 8.11718 779 37 36 74 255
-102.026 10.7395 773 152 181 201 255
-98.9553 10.6979 770 97 86 113 255
-96.2808 10.6979 770 76 87 91 255
-93.3632 10.6701 768 71 77 92 255
-90.9319 10.6979 770 56 71 58 255
-88.2574 10.6979 770 73 41 35 255
-46.1745 10.8646 782 158 196 194 255
-43.2916 10.8229 779 118 109 143 255
-40.4817 10.7951 777 85 89 109 255
-37.7829 10.7951 777 80 80 83 255
-35.1744 10.8229 779 61 67 83 255
-104.575 13.4071 772 160 190 213 255
-101.894 13.4071 772 100 123 164 255
-98.9553 13.3723 770 69 74 78 255
-96.5309 13.4071 772 71 77 85 255
-93.3632 13.3376 768 65 77 64 255
-90.9319 13.3723 770 65 48 65 255
-43.1805 13.4939 777 147 127 166 255
-40.3775 13.4592 775 106 121 107 255
-37.6857 13.4592 775 73 77 98 255
-34.9938 13.4592 775 56 41 67 255
-32.3854 13.4939 777 38 46 59 255
-104.033 16.0051 768 136 146 180 255
-101.63 16.0468 770 103 110 106 255
-98.5697 15.9843 767 72 71 59 255
-96.2808 16.0468 770 66 78 91 255
-93.3632 16.0051 768 59 68 63 255
-91.1681 16.0885 772 75 79 77 255
-43.1805 16.1927 777 164 180 168 255
-40.3775 16.151 775 100 108 125 255
-37.5884 16.1093 773 54 60 87 255
-34.8584 16.0885 772 46 37 48 255
-32.2186 16.1093 773 39 42 34 255
-29.5338 16.1093 773 44 44 55 255
-26.9183 16.151 775 88 113 128 255
-109.368 18.6726 768 139 141 151 255
-106.701 18.6726 768 148 172 162 255
-104.033 18.6726 768 113 146 134 255
-101.63 18.7213 770 70 73 71 255
-98.6982 18.6726 768 62 73 65 255
-96.0307 18.6726 768 57 69 96 255
-93.3632 18.6726 768 68 56 79 255
-43.0693 18.8428 775 176 212 186 255
-40.2733 18.7942 773 94 83 101 255
-37.4425 18.7213 770 42 42 78 255
-34.6778 18.6726 768 45 49 50 255
-32.0936 18.7213 770 42 43 21 255
-29.4955 18.7699 772 35 54 40 255
-26.8489 18.7942 773 78 82 123 255
-109.653 21.3957 770 107 136 143 255
-106.701 21.3402 768 115 137 151 255
-104.033 21.3402 768 78 86 60 255
-101.366 21.3402 768 50 45 48 255
-98.6982 21.3402 768 54 54 77 255
-96.0307 21.3402 768 62 46 89 255
-93.2416 21.3124 767 81 90 75 255
-42.7915 21.3957 770 167 211 215 255
-40.117 21.3957 770 91 60 93 255
-37.1994 21.2568 765 36 41 76 255
-34.5423 21.2568 765 45 44 59 255
-32.0102 21.3402 768 39 35 32 255
-29.4955 21.4513 772 33 28 54 255
-26.8489 21.4791 773 86 106 129 255
-109.653 24.0702 770 71 103 112 255
-106.701 24.0077 768 57 92 113 255
-104.033 24.0077 768 48 47 44 255
-100.97 23.9139 765 42 43 30 255
-98.5697 23.9764 767 51 41 74 255
-95.9057 23.9764 767 75 75 80 255
-39.7523 23.8514 763 143 150 125 255
-37.1021 23.8514 763 63 46 50 255
-34.452 23.8514 763 30 41 65 255
-31.9686 23.9764 767 35 40 46 255
-29.4191 24.0702 770 52 54 67 255
-111.015 26.4321 761 53 63 60 255
-108.371 26.4321 761 43 42 73 255
-106.284 26.571 765 39 36 78 255
-103.627 26.571 765 42 43 75 255
-100.706 26.5015 763 42 42 64 255
-97.7986 26.4321 761 63 78 45 255
-95.4055 26.5015 763 89 102 79 255
-39.6481 26.4321 761 167 181 157 255
-36.9563 26.3973 760 84 51 42 255
-34.3165 26.3973 760 34 21 75 255
-31.8018 26.5015 763 39 54 69 255
-29.2281 26.571 765 60 51 70 255
-26.5015 26.5015 763 118 149 150 255
-111.306 29.1517 763 25 16 71 255
-108.656 29.1517 763 22 10 35 255
-106.006 29.1517 763 23 17 61 255
-103.356 29.1517 763 35 34 64 255
-100.442 29.0753 761 41 34 40 255
-39.596 29.0371 760 118 124 133 255
-36.7618 28.8842 756 53 55 55 255
-34.1359 28.8842 756 53 30 60 255
-31.5934 28.9607 758 48 64 63 255
-29.0753 29.0753 761 65 56 62 255
-26.4321 29.0753 761 122 152 150 255
-113.21 31.5934 758 57 53 63 255
-110.285 31.5101 756 31 30 56 255
-107.659 31.5101 756 27 22 16 255
-105.589 31.6768 760 26 33 46 255
-103.627 31.8852 765 26 26 50 255
-42.0134 31.5101 756 157 192 206 255
-39.3876 31.5101 756 93 62 103 255
-36.7131 31.4684 755 53 47 49 255
-34.0908 31.4684 755 69 65 57 255
-31.4684 31.4684 755 65 74 70 255
-28.9607 31.5934 758 61 64 53 255
-26.3973 31.6768 760 110 151 150 255
-118.944 34.3617 761 167 182 191 255
-115.384 34.0908 755 141 133 155 255
-112.762 34.0908 755 71 97 77 255
-110.577 34.2262 758 33 2 23 255
-108.229 34.3165 760 36 29 37 255
-105.589 34.3165 760 25 17 57 255
-103.898 34.6326 767 59 31 44 255
-42.0134 34.1359 756 173 232 219 255
-39.3355 34.0908 755 157 143 142 255
-36.7131 34.0908 755 95 77 56 255
-33.9553 33.9553 752 75 72 38 255
-31.4684 34.0908 755 78 78 89 255
-28.9607 34.2262 758 63 61 66 255
-121.907 37.1021 763 148 167 193 255
-118.475 36.859 758 160 181 196 255
-115.384 36.7131 755 143 150 191 255
-112.463 36.6159 753 150 177 151 255
-41.9579 36.7131 755 180 221 234 255
-39.2313 36.6159 753 218 237 199 255
-36.5673 36.5673 752 182 177 140 255
-33.7747 36.3727 748 119 130 62 255
-31.26 36.47 750 84 82 82 255
-28.655 36.47 750 61 62 72 255
-124.231 39.6481 761 115 106 146 255
-121.428 39.596 760 135 164 188 255
-117.694 39.2313 753 112 123 156 255
-114.62 39.075 750 97 131 151 255
-111.716 38.9708 748 119 113 148 255
-39.1792 39.1792 752 208 230 228 255
-36.47 39.075 750 178 182 202 255
-33.7747 38.9708 748 117 125 88 255
-31.26 39.075 750 82 87 78 255
-28.655 39.075 750 62 51 37 255
-124.067 42.2357 760 119 128 142 255
-120.629 41.9579 755 116 141 164 255
-117.694 41.8467 753 89 58 93 255
-114.314 41.5689 748 84 114 125 255
-111.567 41.5133 747 93 100 92 255
-38.9708 41.5689 748 202 210 236 255
-36.3241 41.5133 747 170 200 188 255
-33.6392 41.4021 745 105 86 47 255
-31.1766 41.5689 748 72 89 92 255
-28.5786 41.5689 748 41 45 49 255
-126.874 44.9345 761 126 134 115 255
-123.741 44.7574 758 122 136 128 255
-120.309 44.4621 753 104 86 116 255
-117.538 44.4031 752 89 99 80 255
-114.314 44.1669 748 94 119 136 255
-110.82 43.8126 742 82 79 79 255
-38.8145 43.9898 745 177 199 225 255
-36.2269 43.9898 745 164 195 169 255
-33.5489 43.8717 743 136 84 83 255
-31.1766 44.1669 748 133 146 123 255
-28.5786 44.1669 748 129 149 96 255
-126.707 47.5152 760 141 158 153 255
-123.414 47.2651 756 118 131 118 255
-120.629 47.2026 755 82 93 73 255
-118.163 47.2651 756 58 46 76 255
-115.078 47.0776 753 48 39 89 255
-112.015 46.89 750 50 34 68 255
-38.7103 46.4524 743 139 150 177 255
-36.1296 46.4524 743 161 165 159 255
-33.5489 46.4524 743 160 151 139 255
-30.9682 46.4524 743 172 210 159 255
-28.3876 46.4524 743 173 205 138 255
-129.007 50.0229 758 137 152 149 255
-126.707 50.1549 760 126 136 165 255
-123.414 49.891 756 92 84 100 255
-120.789 49.891 756 62 65 68 255
-118.163 49.891 756 33 45 25 255
-115.384 49.825 755 29 45 67 255
-38.7103 49.033 743 129 153 152 255
-36.081 48.9671 742 147 155 153 255
-33.5489 49.033 743 158 160 151 255
-30.9682 49.033 743 157 162 149 255
-28.5404 49.297 747 153 168 143 255
-131.118 52.4473 755 140 153 162 255
-128.666 52.5168 756 134 150 157 255
-125.874 52.4473 755 110 126 126 255
-123.251 52.4473 755 76 72 84 255
-120.789 52.5168 756 53 49 75 255
-118.163 52.5168 756 34 33 40 255
-115.843 52.6557 758 55 60 79 255
-131.292 55.1426 756 120 124 138 255
-128.496 55.0697 755 95 119 136 255
-125.54 54.9238 753 80 72 103 255
-123.414 55.1426 756 62 65 77 255
-120.789 55.1426 756 49 44 35 255
-118.163 55.1426 756 54 51 76 255
-115.384 55.0697 755 73 91 74 255
-133.918 57.7685 756 137 107 151 255
-131.292 57.7685 756 103 91 106 255
-128.666 57.7685 756 91 94 104 255
-125.874 57.6921 755 70 69 110 255
-123.251 57.6921 755 51 45 82 255
-120.789 57.7685 756 53 48 33 255
-118.007 57.6921 755 72 79 69 255
-137.266 60.7139 760 144 143 179 255
-134.272 60.5541 758 140 140 163 255
-131.118 60.3144 755 107 120 73 255
-128.156 60.1547 753 81 78 100 255
-125.874 60.3144 755 61 48 93 255
-123.251 60.3144 755 38 48 82 255
-120.789 60.3943 756 50 65 72 255
-118.007 60.3144 755 80 92 54 255
-137.266 63.3536 760 162 157 152 255
-133.918 63.0202 756 188 216 199 255
-131.118 62.9368 755 140 140 109 255
-127.985 62.6867 752 67 81 102 255
-125.54 62.7701 753 44 23 42 255
-123.251 62.9368 755 48 46 72 255
-120.629 62.9368 755 65 67 75 255
-137.266 65.9933 760 173 245 163 255
-133.918 65.646 756 209 225 203 255
-130.771 65.3855 753 156 161 157 255
-128.156 65.3855 753 91 109 116 255
-125.54 65.3855 753 40 21 47 255
-123.414 65.646 756 53 60 68 255
-120.629 65.5592 755 70 75 67 255
-136.905 68.4525 758 179 254 198 255
-133.918 68.2718 756 207 197 195 255
-131.118 68.1815 755 148 156 155 255
-128.156 68.0009 753 144 146 144 255
-125.54 68.0009 753 130 150 133 255
-134.272 71.0852 758 146 112 151 255
-131.292 70.8977 756 100 128 143 255
-128.156 70.6163 753 101 105 141 255
-125.373 70.5226 752 93 139 132 255
-135.158 74.2043 763 91 79 72 255
-132.16 74.0098 761 69 58 88 255
-129.347 73.9125 760 69 49 91 255
