ply
format ascii 1.0
element vertex 742
property float x
property float y
property float z
property uchar red
property uchar green
property uchar blue
property uchar alpha
end_header
-56.9279 -85.3919 745 147 144 157 255
-54.1944 -85.1627 743 155 205 159 255
-62.3533 -83.1377 748 231 254 254 255
-59.7552 -83.1377 748 194 226 227 255
-57.0808 -83.0266 747 156 186 196 255
-54.3403 -82.8043 745 117 139 141 255
-51.6137 -82.582 743 70 67 68 255
-64.9513 -80.5396 748 231 254 254 255
-62.3533 -80.5396 748 254 254 254 255
-59.7552 -80.5396 748 228 230 238 255
-57.0808 -80.432 747 191 221 208 255
-54.4862 -80.432 747 127 123 143 255
-51.6137 -80.0013 743 81 78 27 255
-65.125 -78.15 750 253 254 254 255
-62.52 -78.15 750 249 254 254 255
-59.7552 -77.9416 748 232 242 235 255
-57.1572 -77.9416 748 180 195 203 255
-54.5591 -77.9416 748 102 66 99 255
-51.7527 -77.629 745 80 65 65 255
-68.2718 -76.1494 756 211 254 254 255
-65.3855 -75.8472 753 249 254 246 255
-62.6867 -75.7465 752 189 230 217 255
-59.915 -75.545 750 146 143 200 255
-57.31 -75.545 750 139 169 156 255
-54.705 -75.545 750 87 57 65 255
-52.1 -75.545 750 82 97 88 255
-68.4525 -73.718 758 233 254 254 255
-65.5592 -73.4263 755 169 154 202 255
-62.7701 -73.2318 753 74 123 162 255
-60.0748 -73.1345 752 51 42 123 255
-57.4628 -73.1345 752 55 73 109 255
-54.8509 -73.1345 752 82 98 39 255
-52.2389 -73.1345 752 127 129 112 255
-68.6331 -71.2728 760 175 203 218 255
-65.5592 -70.8039 755 100 106 153 255
-62.7701 -70.6163 753 74 65 112 255
-60.1547 -70.6163 753 49 56 66 255
-57.5392 -70.6163 753 44 54 85 255
-55.0697 -70.8039 755 99 119 57 255
-68.6331 -68.6331 760 114 95 168 255
-65.646 -68.2718 756 90 101 134 255
-63.0202 -68.2718 756 96 116 115 255
-60.3943 -68.2718 756 83 87 80 255
-57.7685 -68.2718 756 74 58 81 255
-55.1426 -68.2718 756 115 147 126 255
-68.7234 -66.0802 761 93 88 144 255
-65.9933 -65.9933 760 94 95 128 255
-63.3536 -65.9933 760 99 120 147 255
-60.5541 -65.8197 758 90 88 102 255
-57.9213 -65.8197 758 102 86 95 255
-75.0796 -64.3539 772 169 179 207 255
-72.023 -64.0205 768 113 124 147 255
-69.0846 -63.7704 765 97 109 133 255
-66.2538 -63.6037 763 85 74 127 255
-63.437 -63.437 761 83 97 119 255
-60.7938 -63.437 761 82 84 98 255
-58.1505 -63.437 761 119 133 81 255
-75.3713 -61.9122 775 154 165 205 255
-72.2106 -61.5127 770 102 100 139 255
-69.2652 -61.2731 767 93 110 133 255
-66.4275 -61.1133 765 66 55 100 255
-63.6037 -60.9535 763 66 88 90 255
-60.9535 -60.9535 763 85 83 88 255
31.8852 -61.1133 765 120 131 106 255
34.5423 -61.1133 765 116 103 122 255
37.1994 -61.1133 765 123 144 129 255
-77.5595 -58.8383 770 191 220 246 255
-75.3713 -59.2203 775 148 143 203 255
-72.3982 -58.9911 772 103 119 134 255
-69.3555 -58.6854 768 97 99 126 255
-66.688 -58.6854 768 84 73 81 255
-63.9371 -58.609 767 73 91 84 255
-61.1133 -58.4562 765 106 96 105 255
29.1517 -58.3034 763 123 129 124 255
31.8852 -58.4562 765 121 147 142 255
34.5423 -58.4562 765 113 118 160 255
37.1994 -58.4562 765 98 95 124 255
39.9607 -58.609 767 99 118 103 255
42.7915 -58.8383 770 102 117 131 255
-80.234 -56.1638 770 173 190 197 255
-77.761 -56.3097 772 187 214 241 255
-75.5658 -56.6744 777 162 156 203 255
-72.3982 -56.3097 772 141 161 162 255
-69.5361 -56.1638 770 114 117 126 255
-66.8617 -56.1638 770 82 98 88 255
-64.1872 -56.1638 770 68 73 69 255
-61.7524 -56.3826 773 107 113 115 255
26.571 -55.7991 765 122 153 150 255
29.2281 -55.7991 765 116 120 146 255
31.8018 -55.6532 763 118 139 170 255
34.5423 -55.7991 765 108 134 123 255
37.1994 -55.7991 765 92 97 106 255
39.8565 -55.7991 765 92 101 104 255
42.6803 -56.0179 768 106 121 97 255
45.4659 -56.1638 770 140 150 146 255
-78.4661 -54.1145 779 175 190 234 255
-75.5658 -53.9756 777 195 232 227 255
-72.6795 -53.8367 775 171 184 190 255
-69.8071 -53.6977 773 107 125 127 255
-67.2958 -53.8367 775 69 89 92 255
-64.604 -53.8367 775 75 61 76 255
-62.0719 -53.9756 777 127 173 135 255
18.7213 -53.4893 770 148 161 160 255
21.3402 -53.3504 768 118 126 169 255
23.9139 -53.142 765 106 105 144 255
26.5015 -53.0031 763 108 121 134 255
29.1517 -53.0031 763 106 119 142 255
31.8018 -53.0031 763 106 118 146 255
34.452 -53.0031 763 102 101 94 255
37.1994 -53.142 765 93 94 90 255
39.9607 -53.2809 767 88 93 93 255
42.7915 -53.4893 770 126 144 113 255
-78.5668 -51.4748 780 140 162 204 255
-75.5658 -51.2768 777 155 190 247 255
-72.6795 -51.1448 775 126 155 149 255
-69.9877 -51.1448 775 74 80 113 255
-67.4695 -51.2768 777 33 42 96 255
-64.7707 -51.2768 777 67 46 114 255
-62.3116 -51.4748 780 151 163 159 255
18.7213 -50.8149 770 90 100 136 255
21.2568 -50.4849 765 99 117 149 255
23.9139 -50.4849 765 104 121 130 255
26.571 -50.4849 765 102 112 119 255
29.2281 -50.4849 765 100 112 112 255
31.8852 -50.4849 765 95 97 96 255
34.452 -50.3529 763 86 91 94 255
37.1994 -50.4849 765 78 70 49 255
39.9607 -50.6169 767 74 74 68 255
42.7915 -50.8149 770 114 144 155 255
45.584 -50.9469 772 155 161 142 255
-81.6928 -49.0157 784 169 187 189 255
-78.7682 -48.8906 782 161 163 198 255
-75.7603 -48.7031 779 156 195 227 255
-72.8671 -48.578 777 122 131 129 255
-70.1683 -48.578 777 74 54 95 255
-67.6432 -48.7031 779 45 47 55 255
-64.9374 -48.7031 779 92 98 112 255
-62.3116 -48.7656 780 162 180 160 255
18.6726 -48.0154 768 100 109 135 255
21.2568 -47.8278 765 101 121 116 255
23.9139 -47.8278 765 98 102 99 255
26.571 -47.8278 765 97 103 112 255
29.2281 -47.8278 765 91 92 89 255
31.8018 -47.7028 763 85 79 52 255
34.5423 -47.8278 765 71 81 56 255
37.1994 -47.8278 765 62 67 26 255
39.9607 -47.9528 767 91 87 94 255
42.9026 -48.2654 772 138 140 153 255
-81.9012 -46.4107 786 156 188 211 255
-78.7682 -46.1745 782 142 158 201 255
-75.8576 -46.0564 780 147 166 204 255
-73.0546 -45.9974 779 131 135 154 255
-70.3489 -45.9974 779 87 104 84 255
-67.73 -46.0564 780 59 46 35 255
-65.1875 -46.1745 782 109 142 127 255
7.74206 -43.8717 743 243 254 254 255
10.3089 -43.8126 742 222 254 205 255
12.7992 -43.5174 737 111 96 126 255
15.9426 -45.1707 765 58 74 88 255
18.6483 -45.2888 767 78 87 124 255
21.2568 -45.1707 765 83 104 95 255
23.9139 -45.1707 765 95 104 91 255
26.571 -45.1707 765 93 105 102 255
29.2281 -45.1707 765 87 91 92 255
31.8852 -45.1707 765 86 85 73 255
34.5423 -45.1707 765 102 101 95 255
37.2967 -45.2888 767 123 122 82 255
-78.9697 -43.5695 784 181 254 221 255
-75.8576 -43.3472 780 202 224 217 255
-73.1484 -43.3472 780 133 149 165 255
-70.4392 -43.3472 780 68 35 86 255
-67.73 -43.3472 780 45 44 58 255
-65.0208 -43.3472 780 111 146 160 255
5.23084 -41.8467 753 149 99 185 255
7.815 -41.68 750 174 254 250 255
10.3227 -41.291 743 106 135 78 255
12.834 -41.0687 739 9 2 48 255
15.9426 -42.5136 765 50 60 110 255
18.5997 -42.5136 765 87 98 108 255
21.2568 -42.5136 765 97 111 122 255
23.9139 -42.5136 765 98 100 106 255
26.571 -42.5136 765 78 94 71 255
29.2281 -42.5136 765 90 81 99 255
31.8852 -42.5136 765 126 144 112 255
34.5423 -42.5136 765 137 141 124 255
-78.9697 -40.8464 784 206 254 254 255
-76.0521 -40.7422 782 200 229 228 255
-73.1484 -40.638 780 103 109 128 255
-70.6198 -40.7422 782 50 42 86 255
-67.9037 -40.7422 782 67 56 42 255
-65.1875 -40.7422 782 124 163 162 255
0 -39.9607 767 111 129 155 255
2.63279 -39.4918 758 107 153 196 255
5.24473 -39.3355 755 87 113 103 255
7.84626 -39.2313 753 46 44 159 255
10.6006 -39.7523 763 38 4 41 255
13.2855 -39.8565 765 65 45 39 255
15.9426 -39.8565 765 84 104 91 255
18.5997 -39.8565 765 86 88 98 255
21.2568 -39.8565 765 79 82 87 255
23.9139 -39.8565 765 78 80 109 255
26.571 -39.8565 765 105 99 82 255
29.2281 -39.8565 765 149 155 135 255
31.8852 -39.8565 765 160 169 142 255
-79.1712 -38.2206 786 199 254 254 255
-76.2466 -38.1233 784 189 200 203 255
-73.336 -38.0261 782 104 95 98 255
-70.8004 -38.1233 784 48 56 83 255
-67.9037 -38.0261 782 63 45 51 255
-8.0234 -37.4425 770 126 130 155 255
-5.34893 -37.4425 770 119 130 160 255
-2.66752 -37.3453 768 111 125 159 255
0 -37.1994 765 106 118 152 255
2.65015 -37.1021 763 96 124 154 255
5.28641 -37.0049 761 81 96 77 255
7.95046 -37.1021 763 55 59 54 255
10.6701 -37.3453 768 59 65 104 255
13.3723 -37.4425 770 81 98 81 255
16.0051 -37.3453 768 80 94 49 255
18.6726 -37.3453 768 67 82 74 255
21.3124 -37.2967 767 88 83 92 255
23.9139 -37.1994 765 135 137 117 255
-79.1712 -35.4905 786 186 254 254 255
-76.2466 -35.4002 784 160 175 171 255
-73.336 -35.3099 782 90 84 103 255
-70.8004 -35.4002 784 58 69 78 255
-68.0773 -35.4002 784 71 47 76 255
-10.7395 -34.9035 773 130 157 176 255
-8.04424 -34.8584 772 132 156 176 255
-5.34893 -34.7681 770 139 137 171 255
-2.66752 -34.6778 768 129 136 155 255
0 -34.6326 767 102 107 150 255
2.6571 -34.5423 765 84 97 119 255
5.30031 -34.452 763 72 71 85 255
7.9713 -34.5423 765 71 82 56 255
10.6701 -34.6778 768 82 90 114 255
13.3723 -34.7681 770 83 80 90 255
16.0468 -34.7681 770 91 90 62 255
18.7213 -34.7681 770 113 133 89 255
21.3957 -34.7681 770 139 152 131 255
-81.9012 -32.7605 786 136 157 190 255
-78.9697 -32.6771 784 156 209 237 255
-76.2466 -32.6771 784 145 174 162 255
-73.5235 -32.6771 784 82 77 77 255
-70.8004 -32.6771 784 39 55 63 255
-68.0773 -32.6771 784 61 51 83 255
-16.1093 -32.2186 773 147 172 201 255
-13.4592 -32.302 775 155 178 212 255
-10.7395 -32.2186 773 167 186 208 255
-8.04424 -32.177 772 183 215 220 255
-5.34893 -32.0936 770 169 193 190 255
-2.66752 -32.0102 768 124 135 139 255
0 -31.9686 767 99 109 141 255
2.66405 -31.9686 767 90 102 93 255
5.3142 -31.8852 765 74 91 96 255
8.00256 -32.0102 768 66 83 77 255
10.6979 -32.0936 770 73 76 117 255
13.4071 -32.177 772 107 108 118 255
16.0885 -32.177 772 153 171 136 255
18.7699 -32.177 772 162 158 133 255
-81.9012 -30.0304 786 120 127 185 255
-79.1712 -30.0304 786 112 148 197 255
-76.2466 -29.954 784 102 125 141 255
-73.5235 -29.954 784 53 53 50 255
-70.8004 -29.954 784 20 20 61 255
-68.0773 -29.954 784 55 53 73 255
-21.5347 -29.6102 775 164 198 205 255
-18.7942 -29.5338 773 186 217 218 255
-16.0885 -29.4955 772 180 191 214 255
-13.4592 -29.6102 775 175 204 227 255
-10.7257 -29.4955 772 172 199 224 255
-8.04424 -29.4955 772 174 200 224 255
-5.34893 -29.4191 770 150 157 183 255
-2.66752 -29.3427 768 107 106 116 255
0 -29.3427 768 93 104 129 255
2.66752 -29.3427 768 86 100 101 255
5.32809 -29.3045 767 70 91 93 255
8.0234 -29.4191 770 92 102 83 255
10.7257 -29.4955 772 149 163 141 255
13.4071 -29.4955 772 176 182 154 255
-81.9012 -27.3004 786 157 156 194 255
-79.1712 -27.3004 786 139 155 174 255
-76.2466 -27.2309 784 79 64 118 255
-73.7111 -27.3004 786 41 30 48 255
-70.981 -27.3004 786 21 25 41 255
-68.251 -27.3004 786 53 51 45 255
-29.6102 -26.9183 775 116 85 172 255
-26.9183 -26.9183 775 154 173 187 255
-24.2265 -26.9183 775 186 215 240 255
-21.5347 -26.9183 775 193 220 245 255
-18.7699 -26.8141 772 190 197 222 255
-16.0885 -26.8141 772 181 207 214 255
-13.4244 -26.8489 773 173 185 209 255
-10.7257 -26.8141 772 168 176 210 255
-8.04424 -26.8141 772 161 178 183 255
-5.34893 -26.7447 770 128 131 140 255
-2.67447 -26.7447 770 91 91 94 255
0 -26.7447 770 87 94 133 255
2.67447 -26.7447 770 120 134 136 255
5.34893 -26.7447 770 146 130 106 255
8.04424 -26.8141 772 157 162 115 255
-82.1096 -24.6329 788 183 198 208 255
-79.3726 -24.6329 788 135 157 169 255
-76.4411 -24.5704 786 88 97 132 255
-73.7111 -24.5704 786 63 55 56 255
-70.981 -24.5704 786 33 27 50 255
-68.251 -24.5704 786 54 25 47 255
-65.521 -24.5704 786 131 165 152 255
-35.2196 -24.3828 780 133 167 170 255
-32.3854 -24.289 777 131 101 146 255
-29.6866 -24.289 777 153 188 193 255
-26.9878 -24.289 777 189 214 233 255
-24.2265 -24.2265 775 196 218 235 255
-21.5347 -24.2265 775 185 226 220 255
-18.7942 -24.164 773 146 140 186 255
-16.1093 -24.164 773 127 145 190 255
-13.4592 -24.2265 775 135 173 181 255
-10.7673 -24.2265 775 129 155 181 255
-8.05466 -24.164 773 116 110 132 255
-5.36283 -24.1327 772 104 114 120 255
-2.68141 -24.1327 772 118 93 97 255
0 -24.1327 772 157 167 158 255
-82.2138 -21.9237 789 176 213 202 255
-79.3726 -21.8959 788 123 126 162 255
-76.4411 -21.8403 786 93 117 138 255
-73.7111 -21.8403 786 77 71 66 255
-70.981 -21.8403 786 51 72 81 255
-68.251 -21.8403 786 60 46 63 255
-65.3542 -21.7847 784 121 165 159 255
-38.0261 -21.7292 782 176 218 193 255
-35.3099 -21.7292 782 156 190 187 255
-32.4687 -21.6458 779 122 83 160 255
-29.6866 -21.5902 777 121 107 173 255
-26.9878 -21.5902 777 160 218 228 255
-24.289 -21.5902 777 167 184 200 255
-21.5347 -21.5347 775 129 103 160 255
-18.8428 -21.5347 775 129 160 169 255
-16.151 -21.5347 775 139 167 165 255
-13.4939 -21.5902 777 135 157 168 255
-10.7951 -21.5902 777 116 121 161 255
-8.0755 -21.5347 775 109 105 112 255
-5.36977 -21.4791 773 131 141 147 255
-2.69183 -21.5347 775 160 164 134 255
-84.9543 -19.1832 789 157 164 203 255
-82.2138 -19.1832 789 171 231 226 255
-79.4733 -19.1832 789 138 128 165 255
-76.6356 -19.1589 788 85 103 102 255
-73.7111 -19.1103 786 70 62 64 255
-71.1617 -19.1589 788 66 87 74 255
-68.4247 -19.1589 788 61 53 75 255
-65.521 -19.1103 786 106 149 130 255
-62.7909 -19.1103 786 160 180 151 255
-43.5695 -19.0617 784 127 143 163 255
-40.7422 -19.013 782 156 194 215 255
-38.0261 -19.013 782 124 129 157 255
-35.2196 -18.9644 780 85 41 153 255
-32.4687 -18.9401 779 109 134 140 255
-29.6866 -18.8915 777 135 153 126 255
-26.9878 -18.8915 777 121 125 171 255
-24.289 -18.8915 777 101 78 167 255
-21.5347 -18.8428 775 116 141 161 255
-18.8915 -18.8915 777 139 149 182 255
-16.1927 -18.8915 777 131 136 171 255
-13.5286 -18.9401 779 131 153 157 255
-10.7951 -18.8915 777 135 143 145 255
-8.09634 -18.8915 777 128 126 130 255
-5.44619 -19.0617 784 140 143 148 255
-85.1696 -16.4844 791 152 149 186 255
-82.2138 -16.4428 789 177 247 254 255
-79.3726 -16.4219 788 138 115 175 255
-76.6356 -16.4219 788 75 94 93 255
-73.7111 -16.3802 786 60 41 62 255
-71.1617 -16.4219 788 52 73 78 255
-68.4247 -16.4219 788 53 50 84 255
-65.6877 -16.4219 788 39 43 76 255
-62.9507 -16.4219 788 75 94 136 255
-51.8708 -16.3802 786 94 118 125 255
-49.0157 -16.3386 784 122 155 157 255
-46.2926 -16.3386 784 120 144 152 255
-43.4583 -16.2969 782 108 105 130 255
-40.7422 -16.2969 782 98 106 159 255
-37.9288 -16.2552 780 99 91 121 255
-35.2196 -16.2552 780 125 164 174 255
-32.4687 -16.2344 779 136 134 111 255
-29.6866 -16.1927 777 109 130 133 255
-26.9878 -16.1927 777 111 120 126 255
-24.289 -16.1927 777 139 166 182 255
-21.5902 -16.1927 777 146 161 187 255
-18.8915 -16.1927 777 148 149 170 255
-16.1927 -16.1927 777 158 164 165 255
-13.5286 -16.2344 779 167 173 144 255
-84.9543 -13.7023 789 138 154 174 255
-82.2138 -13.7023 789 144 185 229 255
-79.3726 -13.6849 788 105 122 153 255
-76.6356 -13.6849 788 61 66 116 255
-73.7111 -13.6502 786 61 70 79 255
-71.1617 -13.6849 788 63 80 84 255
-68.4247 -13.6849 788 48 60 81 255
-65.6877 -13.6849 788 45 46 37 255
-62.9507 -13.6849 788 60 85 105 255
-60.2901 -13.7023 789 71 91 117 255
-57.3308 -13.6502 786 109 127 145 255
-54.4619 -13.6155 784 156 182 157 255
-51.7388 -13.6155 784 169 188 145 255
-49.0157 -13.6155 784 139 159 183 255
-46.2926 -13.6155 784 108 119 156 255
-43.4583 -13.5807 782 95 99 117 255
-40.7422 -13.5807 782 109 94 154 255
-37.9288 -13.546 780 142 187 185 255
-35.1744 -13.5286 779 141 160 179 255
-32.4687 -13.5286 779 127 96 127 255
-29.763 -13.5286 779 134 149 166 255
-27.0573 -13.5286 779 146 170 150 255
-24.3515 -13.5286 779 149 161 184 255
-21.6458 -13.5286 779 155 161 168 255
-18.9401 -13.5286 779 159 169 158 255
-85.1696 -10.9896 791 160 180 182 255
-82.2138 -10.9618 789 163 188 208 255
-79.1712 -10.9202 786 107 108 116 255
-76.4411 -10.9202 786 68 85 102 255
-73.7111 -10.9202 786 75 67 100 255
-70.981 -10.9202 786 76 101 87 255
-68.251 -10.9202 786 66 75 85 255
-65.6877 -10.9479 788 64 60 49 255
-62.9507 -10.9479 788 93 94 121 255
-60.0609 -10.9202 786 141 158 144 255
-57.185 -10.8924 784 158 180 187 255
-54.4619 -10.8924 784 124 131 144 255
-51.7388 -10.8924 784 92 84 119 255
-48.8906 -10.8646 782 89 97 136 255
-46.1745 -10.8646 782 94 55 156 255
-43.4583 -10.8646 782 138 171 178 255
-40.7422 -10.8646 782 182 208 201 255
-37.9288 -10.8368 780 174 189 214 255
-35.2196 -10.8368 780 162 181 189 255
-32.5104 -10.8368 780 161 179 168 255
-29.8776 -10.8646 782 157 164 174 255
-27.2309 -10.8924 784 153 166 168 255
-88.1393 -8.26306 793 126 130 185 255
-85.1696 -8.24222 791 159 206 211 255
-82.2138 -8.22138 789 168 184 204 255
-79.1712 -8.19012 786 123 156 137 255
-76.4411 -8.19012 786 86 50 96 255
-73.7111 -8.19012 786 87 94 113 255
-70.981 -8.19012 786 87 100 114 255
-68.251 -8.19012 786 64 74 73 255
-65.771 -8.22138 789 75 86 89 255
-62.6311 -8.16928 784 107 126 146 255
-59.9081 -8.16928 784 105 119 150 255
-57.185 -8.16928 784 87 99 161 255
-54.4619 -8.16928 784 79 85 119 255
-51.7388 -8.16928 784 84 60 149 255
-48.8906 -8.14844 782 106 109 155 255
-46.1745 -8.14844 782 148 174 177 255
-43.4583 -8.14844 782 166 200 227 255
-40.7422 -8.14844 782 157 181 196 255
-38.0261 -8.14844 782 136 151 184 255
-35.3099 -8.14844 782 138 159 195 255
-32.5938 -8.14844 782 157 168 179 255
-91.1229 -5.5226 795 115 128 151 255
-88.1393 -5.50871 793 141 176 197 255
-84.9543 -5.48092 789 180 197 227 255
-82.1096 -5.47397 788 163 187 190 255
-79.1712 -5.46008 786 113 113 151 255
-76.4411 -5.46008 786 80 93 105 255
-73.7111 -5.46008 786 84 101 114 255
-70.981 -5.46008 786 79 96 123 255
-68.251 -5.46008 786 77 80 77 255
-65.521 -5.46008 786 88 94 104 255
-62.7909 -5.46008 786 110 126 148 255
-59.9081 -5.44619 784 106 109 145 255
-57.185 -5.44619 784 108 84 127 255
-54.4619 -5.44619 784 160 178 183 255
-51.7388 -5.44619 784 198 231 205 255
-49.0157 -5.44619 784 194 217 200 255
-46.2926 -5.44619 784 174 188 217 255
-43.5695 -5.44619 784 159 188 205 255
-40.8464 -5.44619 784 150 166 180 255
-38.1233 -5.44619 784 140 155 163 255
-35.4002 -5.44619 784 153 159 164 255
-94.1204 -2.76825 797 142 148 184 255
-91.1229 -2.7613 795 138 148 166 255
-88.1393 -2.75435 793 151 175 204 255
-84.9543 -2.74046 789 152 177 213 255
-82.1096 -2.73699 788 148 170 186 255
-79.3726 -2.73699 788 114 110 126 255
-76.6356 -2.73699 788 83 98 116 255
-73.8986 -2.73699 788 81 90 111 255
-71.1617 -2.73699 788 79 81 95 255
-68.4247 -2.73699 788 89 86 97 255
-65.6877 -2.73699 788 108 115 137 255
-62.7909 -2.73004 786 120 142 140 255
-60.0609 -2.73004 786 144 166 186 255
-57.185 -2.72309 784 166 207 151 255
-54.4619 -2.72309 784 161 193 217 255
-51.7388 -2.72309 784 146 165 203 255
-49.0157 -2.72309 784 138 159 183 255
-46.4107 -2.73004 786 146 164 194 255
-43.6806 -2.73004 786 157 163 181 255
-40.9506 -2.73004 786 167 189 173 255
-99.6569 0 797 178 204 215 255
-96.8886 0 797 172 183 179 255
-94.1204 0 797 162 178 192 255
-91.1229 0 795 133 157 178 255
-87.917 0 791 81 83 160 255
-84.9543 0 789 109 127 169 255
-82.2138 0 789 142 183 173 255
-79.3726 0 788 107 95 114 255
-76.6356 0 788 83 96 117 255
-73.8986 0 788 73 88 114 255
-71.1617 0 788 70 88 89 255
-68.4247 0 788 103 114 132 255
-65.6877 0 788 133 150 167 255
-62.9507 0 788 129 144 142 255
-60.2137 0 788 114 156 184 255
-57.3308 0 786 110 98 165 255
-54.6008 0 786 116 137 163 255
-51.7388 0 784 131 149 152 255
-49.0157 0 784 141 154 155 255
-99.6569 2.76825 797 190 231 216 255
-96.8886 2.76825 797 159 148 177 255
-93.8842 2.7613 795 137 177 186 255
-90.8937 2.75435 793 112 103 157 255
-87.917 2.74741 791 89 87 132 255
-84.9543 2.74046 789 126 181 169 255
-82.2138 2.74046 789 117 139 164 255
-79.4733 2.74046 789 80 77 106 255
-76.7329 2.74046 789 93 112 134 255
-73.9924 2.74046 789 89 105 113 255
-71.252 2.74046 789 86 71 99 255
-68.5115 2.74046 789 101 150 155 255
-65.771 2.74046 789 91 89 162 255
-63.0306 2.74046 789 84 110 152 255
-60.2137 2.73699 788 111 117 146 255
-57.3308 2.73004 786 136 156 136 255
-54.4619 2.72309 784 138 146 139 255
-102.168 5.5226 795 190 207 204 255
-99.4068 5.5226 795 143 144 186 255
-96.6455 5.5226 795 117 126 166 255
-93.648 5.50871 793 114 113 154 255
-90.6644 5.49481 791 96 117 143 255
-87.917 5.49481 791 127 151 164 255
-85.1696 5.49481 791 153 193 187 255
-82.4222 5.49481 791 102 95 128 255
-79.4733 5.48092 789 72 62 95 255
-76.7329 5.48092 789 93 134 148 255
-73.9924 5.48092 789 80 83 101 255
-71.4326 5.49481 791 80 101 123 255
-68.6852 5.49481 791 106 130 127 255
-65.9378 5.49481 791 127 150 139 255
-105.325 8.31516 798 147 154 193 255
-102.425 8.30474 797 145 181 211 255
-99.4068 8.2839 795 138 125 164 255
-96.8886 8.30474 797 142 146 184 255
-93.4118 8.24222 791 123 130 118 255
-90.6644 8.24222 791 120 91 149 255
-87.917 8.24222 791 169 198 213 255
-85.1696 8.24222 791 171 199 182 255
-82.4222 8.24222 791 88 67 88 255
-79.6748 8.24222 791 54 80 88 255
-76.9274 8.24222 791 81 92 136 255
-74.18 8.24222 791 113 128 117 255
-71.4326 8.24222 791 148 163 139 255
-68.6852 8.24222 791 150 157 140 255
-108.368 11.1147 800 110 105 179 255
-105.325 11.0869 798 115 132 173 255
-102.425 11.073 797 127 127 178 255
-99.7819 11.0869 798 134 138 166 255
-96.8886 11.073 797 118 115 171 255
-93.4118 10.9896 791 99 49 121 255
-90.6644 10.9896 791 149 206 195 255
-87.917 10.9896 791 175 198 211 255
-85.1696 10.9896 791 122 145 136 255
-82.6306 11.0174 793 85 81 102 255
-79.8762 11.0174 793 107 102 112 255
-111.425 13.9281 802 114 118 148 255
-108.368 13.8933 800 125 126 158 255
-105.325 13.8586 798 126 155 154 255
-102.425 13.8412 797 123 125 150 255
-99.6569 13.8412 797 148 206 202 255
-96.6455 13.8065 795 142 97 167 255
-93.648 13.7718 793 149 195 172 255
-90.8937 13.7718 793 158 204 192 255
-87.917 13.737 791 84 72 130 255
-85.1696 13.737 791 68 79 106 255
-82.839 13.8065 795 113 109 98 255
-118.163 16.8804 810 114 110 147 255
-114.78 16.797 806 129 153 168 255
-111.425 16.7137 802 134 143 152 255
-108.368 16.672 800 144 149 160 255
-105.325 16.6303 798 123 115 141 255
-102.554 16.6303 798 127 137 148 255
-99.7819 16.6303 798 159 199 218 255
-96.8886 16.6095 797 144 135 171 255
-94.1204 16.6095 797 132 174 185 255
-91.3521 16.6095 797 99 96 128 255
-88.3616 16.5678 795 78 85 87 255
-85.6003 16.5678 795 94 95 107 255
-123.79 19.6938 810 139 149 151 255
-120.976 19.6938 810 113 123 152 255
-117.871 19.6452 808 125 142 152 255
-114.495 19.5479 804 139 160 177 255
-111.425 19.4993 802 137 149 166 255
-108.097 19.402 798 118 124 145 255
-105.325 19.402 798 103 43 144 255
-102.554 19.402 798 134 217 184 255
-99.7819 19.402 798 160 166 198 255
-97.0102 19.402 798 157 181 180 255
-94.2385 19.402 798 139 171 151 255
-91.4668 19.402 798 97 82 81 255
-88.5839 19.3777 797 89 89 76 255
-85.8156 19.3777 797 101 103 91 255
-124.401 22.6183 814 121 117 167 255
-121.275 22.5628 812 121 138 154 255
-117.871 22.4516 808 125 140 163 255
-114.78 22.3961 806 129 140 165 255
-111.702 22.3405 804 124 137 166 255
-108.097 22.1738 798 113 96 131 255
-105.325 22.1738 798 138 174 189 255
-102.554 22.1738 798 161 170 193 255
-99.7819 22.1738 798 157 188 199 255
-97.0102 22.1738 798 143 156 183 255
-94.2385 22.1738 798 109 95 107 255
-91.4668 22.1738 798 93 82 79 255
-88.695 22.1738 798 97 94 68 255
-123.79 25.3206 810 121 142 172 255
-120.677 25.2581 808 121 140 163 255
-117.579 25.1956 806 124 136 163 255
-114.78 25.1956 806 121 132 152 255
-111.147 25.008 800 105 85 147 255
-108.097 24.9455 798 132 159 172 255
-105.589 25.008 800 167 179 214 255
-102.811 25.008 800 161 184 193 255
-99.7819 24.9455 798 135 142 154 255
-97.4965 25.0705 802 101 95 131 255
-94.7109 25.0705 802 93 92 85 255
-130.055 28.2729 814 122 144 188 255
-126.916 28.2035 812 123 133 171 255
-123.79 28.134 810 116 137 151 255
-120.379 27.9951 806 104 118 152 255
-117.579 27.9951 806 92 92 143 255
-114.78 27.9951 806 85 73 115 255
-111.702 27.9256 804 124 141 178 255
-108.639 27.8561 802 163 185 220 255
-106.117 27.9256 804 161 183 170 255
-103.325 27.9256 804 134 143 136 255
-100.032 27.7867 800 92 92 118 255
-132.883 31.1002 814 146 158 162 255
-130.055 31.1002 814 123 126 165 255
-126.916 31.0238 812 109 136 158 255
-123.79 30.9474 810 101 112 137 255
-120.677 30.871 808 86 91 143 255
-117.579 30.7946 806 79 83 116 255
-115.065 30.871 808 123 142 143 255
-111.98 30.7946 806 166 201 213 255
-109.181 30.7946 806 146 178 204 255
-106.645 30.871 808 119 135 121 255
-103.582 30.7946 806 115 120 91 255
-138.708 33.9692 815 160 121 235 255
-135.71 33.9275 814 190 237 245 255
-132.556 33.8442 812 189 207 200 255
-129.736 33.8442 812 120 119 135 255
-126.916 33.8442 812 88 89 134 255
-123.79 33.7608 810 87 88 133 255
-120.677 33.6774 808 89 87 97 255
-117.579 33.5941 806 93 92 116 255
-115.065 33.6774 808 126 155 174 255
-111.98 33.5941 806 142 166 167 255
-109.452 33.6774 808 121 112 141 255
-106.909 33.7608 810 115 117 104 255
-138.708 36.8 815 230 250 237 255
-135.71 36.7548 814 224 249 250 255
-132.556 36.6645 812 165 173 228 255
-129.736 36.6645 812 87 85 141 255
-126.916 36.6645 812 66 79 115 255
-123.79 36.5742 810 80 56 127 255
-120.976 36.5742 810 127 173 118 255
-118.163 36.5742 810 143 163 141 255
-115.349 36.5742 810 80 28 99 255
-112.536 36.5742 810 68 88 129 255
-109.723 36.5742 810 105 119 104 255
-142.58 39.9225 821 253 254 254 255
-139.048 39.728 817 207 197 245 255
-135.877 39.6307 815 167 211 247 255
-132.556 39.4849 812 175 154 217 255
-129.736 39.4849 812 171 228 199 255
-126.916 39.4849 812 82 21 96 255
-124.095 39.4849 812 68 71 160 255
-120.976 39.3876 810 132 173 165 255
-118.163 39.3876 810 95 92 119 255
-115.349 39.3876 810 76 69 75 255
-111.98 39.1931 806 97 105 113 255
-145.786 42.8783 823 173 254 254 255
-142.58 42.7741 821 248 254 254 255
-139.048 42.5657 817 227 237 245 255
-135.877 42.4615 815 197 214 245 255
-132.883 42.4094 814 192 224 238 255
-130.055 42.4094 814 173 202 224 255
-127.228 42.4094 814 132 127 130 255
-124.401 42.4094 814 131 145 182 255
-121.275 42.3052 812 128 148 142 255
-118.455 42.3052 812 100 75 81 255
-115.065 42.0968 808 90 105 99 255
-145.786 45.7369 823 191 254 254 255
-142.233 45.5146 819 243 252 253 255
-139.048 45.4034 817 235 254 252 255
-135.877 45.2923 815 205 199 242 255
-132.883 45.2367 814 189 230 252 255
-130.055 45.2367 814 173 192 205 255
-127.384 45.2923 815 134 166 166 255
-124.554 45.2923 815 110 130 143 255
-121.723 45.2923 815 103 116 116 255
-118.746 45.2367 814 102 104 84 255
-145.078 48.3592 819 188 211 238 255
-142.233 48.3592 819 216 254 252 255
-139.048 48.2411 817 207 216 250 255
-135.877 48.123 815 191 214 248 255
-133.046 48.123 815 181 207 238 255
-130.215 48.123 815 150 164 199 255
-127.384 48.123 815 114 128 151 255
-124.554 48.123 815 96 99 122 255
-121.723 48.123 815 99 100 88 255
-145.078 51.2039 819 75 123 150 255
-142.233 51.2039 819 109 110 214 255
-139.388 51.2039 819 189 254 252 255
-136.21 51.0788 817 182 207 237 255
-133.373 51.0788 817 138 163 200 255
-130.854 51.2039 819 130 158 150 255
-128.01 51.2039 819 108 98 125 255
-125.165 51.2039 819 92 97 109 255
-122.32 51.2039 819 95 102 62 255
-142.233 54.0485 819 85 59 111 255
-139.388 54.0485 819 139 212 215 255
-136.544 54.0485 819 134 148 182 255
-133.699 54.0485 819 89 64 127 255
-130.854 54.0485 819 85 76 99 255
-128.322 54.1805 821 89 91 103 255
-125.471 54.1805 821 95 96 90 255
-136.877 57.0321 821 76 73 107 255
-134.026 57.0321 821 87 81 83 255
-130.854 56.8932 819 88 86 81 255
-128.322 57.0321 821 90 92 86 255
