ply
format ascii 1.0
element vertex 717
property float x
property float y
property float z
property uchar red
property uchar green
property uchar blue
property uchar alpha
end_header
-44.4621 -81.078 753 173 204 184 255
-46.5774 -77.629 745 218 254 254 255
-44.1079 -77.8374 747 181 245 187 255
-41.5133 -77.8374 747 122 4 170 255
-49.165 -75.0414 745 198 217 235 255
-46.5774 -75.0414 745 238 254 254 255
-43.9898 -75.0414 745 166 155 218 255
-41.291 -74.8399 743 130 187 205 255
-38.7103 -74.8399 743 152 155 170 255
-51.9611 -72.7455 748 190 211 200 255
-49.363 -72.7455 748 253 254 254 255
-46.7024 -72.6482 747 252 254 254 255
-43.9898 -72.4537 745 236 226 235 255
-41.4021 -72.4537 745 206 234 238 255
-38.7103 -72.2592 743 136 141 117 255
-52.2389 -70.5226 752 235 254 254 255
-49.495 -70.335 750 254 254 254 255
-46.765 -70.1474 748 252 254 250 255
-43.9898 -69.8661 745 247 254 254 255
-41.5133 -70.0537 747 202 212 214 255
-38.8145 -69.8661 745 117 117 133 255
-52.2389 -67.9106 752 213 229 247 255
-49.627 -67.9106 752 168 208 248 255
-46.765 -67.5494 748 177 184 245 255
-44.1079 -67.4591 747 199 238 251 255
-41.5133 -67.4591 747 144 161 159 255
-38.8145 -67.2785 745 89 45 119 255
-55.1426 -65.646 756 161 187 191 255
-52.3084 -65.3855 753 106 105 191 255
-49.627 -65.2987 752 81 103 193 255
-46.89 -65.125 750 85 71 148 255
-44.1669 -64.9513 748 106 161 200 255
-41.5689 -64.9513 748 114 118 120 255
-38.9187 -64.8645 747 129 122 119 255
-58.0741 -63.3536 760 125 131 178 255
-55.4344 -63.3536 760 98 114 133 255
-52.5168 -63.0202 756 100 120 145 255
-49.825 -62.9368 755 94 90 135 255
-47.0776 -62.7701 753 76 76 80 255
-44.4031 -62.6867 752 73 100 129 255
-41.7911 -62.6867 752 102 96 111 255
-61.353 -61.353 768 151 165 189 255
-58.3034 -60.9535 763 114 112 139 255
-55.5073 -60.7938 761 97 119 133 255
-52.7947 -60.7139 760 121 120 159 255
-50.0229 -60.5541 758 143 152 129 255
-47.2651 -60.3943 756 121 112 124 255
-44.6393 -60.3943 756 99 73 91 255
-42.0134 -60.3943 756 137 160 147 255
-64.604 -59.2203 775 158 188 235 255
-61.353 -58.6854 768 134 125 164 255
-58.4562 -58.4562 765 110 118 135 255
-55.6532 -58.3034 763 98 86 127 255
-52.8641 -58.1505 761 123 152 155 255
-50.1549 -58.0741 760 152 185 149 255
-47.5152 -58.0741 760 114 107 130 255
-44.7574 -57.9213 758 124 134 114 255
-64.604 -56.5285 775 163 184 201 255
-61.5127 -56.1638 770 118 117 130 255
-58.6854 -56.0179 768 102 119 136 255
-55.945 -55.945 767 82 81 101 255
-53.0031 -55.6532 763 93 132 146 255
-50.2209 -55.5073 761 103 125 140 255
-47.5777 -55.5073 761 107 98 112 255
-67.4695 -53.9756 777 171 181 223 255
-64.604 -53.8367 775 175 166 189 255
-61.6725 -53.6283 772 153 177 156 255
-58.8383 -53.4893 770 114 126 149 255
-56.0179 -53.3504 768 105 101 97 255
-53.2809 -53.2809 767 119 161 163 255
-50.4849 -53.142 765 105 98 125 255
-47.8278 -53.142 765 134 145 138 255
-67.4695 -51.2768 777 163 185 229 255
-64.604 -51.1448 775 204 202 221 255
-61.7524 -51.0128 773 186 205 195 255
-58.9911 -50.9469 772 145 140 156 255
-56.3097 -50.9469 772 128 141 134 255
-53.4893 -50.8149 770 105 97 128 255
-50.8149 -50.8149 770 109 95 111 255
-70.1683 -48.578 777 159 177 197 255
-67.4695 -48.578 777 174 196 227 255
-64.604 -48.453 775 186 213 228 255
-61.7524 -48.328 773 139 158 177 255
-59.0675 -48.328 773 103 126 142 255
-56.3097 -48.2654 772 95 87 136 255
-53.6283 -48.2654 772 87 75 75 255
-70.3489 -45.9974 779 150 168 198 255
-67.4695 -45.8793 777 169 193 228 255
-64.7707 -45.8793 777 170 215 203 255
-61.9122 -45.7612 775 120 110 140 255
-59.2203 -45.7612 775 77 90 114 255
-56.5285 -45.7612 775 55 58 80 255
-73.336 -43.4583 782 140 149 148 255
-70.4392 -43.3472 780 158 195 208 255
-67.6432 -43.2916 779 196 218 243 255
-64.7707 -43.1805 777 168 183 188 255
-62.0719 -43.1805 777 131 142 147 255
-59.3732 -43.1805 777 82 74 91 255
-56.6744 -43.1805 777 78 77 60 255
-73.336 -40.7422 782 154 116 188 255
-70.6198 -40.7422 782 213 254 247 255
-67.73 -40.638 780 215 236 253 255
-64.7707 -40.4817 777 167 182 179 255
-62.0719 -40.4817 777 104 120 142 255
-59.3732 -40.4817 777 55 68 53 255
-56.8203 -40.5859 779 105 113 104 255
-73.336 -38.0261 782 164 205 253 255
-70.6198 -38.0261 782 238 254 254 255
-67.73 -37.9288 780 193 213 232 255
-64.9374 -37.8802 779 116 121 143 255
-62.2317 -37.8802 779 62 51 95 255
-59.526 -37.8802 779 69 62 33 255
-76.2466 -35.4002 784 137 102 156 255
-73.336 -35.3099 782 181 239 252 255
-70.6198 -35.3099 782 209 233 238 255
-67.9037 -35.3099 782 148 154 189 255
-65.1875 -35.3099 782 102 138 123 255
-62.4714 -35.3099 782 64 59 70 255
-76.2466 -32.6771 784 133 131 172 255
-73.5235 -32.6771 784 171 236 238 255
-70.8004 -32.6771 784 173 197 218 255
-67.9037 -32.5938 782 126 138 160 255
-65.1875 -32.5938 782 85 94 80 255
-62.4714 -32.5938 782 60 58 75 255
-76.2466 -29.954 784 107 106 183 255
-73.5235 -29.954 784 139 189 225 255
-70.8004 -29.954 784 145 164 183 255
-68.0773 -29.954 784 109 122 123 255
-65.3542 -29.954 784 62 56 50 255
-62.4714 -29.8776 782 56 68 50 255
-76.6356 -27.3699 788 155 197 211 255
-73.7111 -27.3004 786 119 140 181 255
-70.8004 -27.2309 784 67 48 116 255
-68.0773 -27.2309 784 44 84 78 255
-65.3542 -27.2309 784 28 27 51 255
-62.4714 -27.1615 782 74 76 43 255
34.0908 -26.2237 755 115 134 99 255
36.7131 -26.2237 755 101 120 106 255
39.2313 -26.1542 753 91 61 119 255
41.9579 -26.2237 755 111 113 97 255
44.5802 -26.2237 755 140 158 148 255
-79.6748 -24.7267 791 161 190 223 255
-76.7329 -24.6641 789 144 178 201 255
-73.8986 -24.6329 788 115 126 142 255
-70.981 -24.5704 786 77 66 88 255
-68.0773 -24.5078 784 31 46 44 255
-65.3542 -24.5078 784 18 17 21 255
23.6951 -23.6951 758 124 154 164 255
26.2584 -23.6326 756 115 144 153 255
28.9607 -23.6951 758 104 118 155 255
31.4684 -23.6013 755 107 122 115 255
34.0005 -23.5388 753 112 118 121 255
36.6159 -23.5388 753 127 147 137 255
39.1792 -23.5075 752 119 132 144 255
41.8467 -23.5388 753 93 112 79 255
44.7574 -23.6951 758 84 84 109 255
47.7028 -23.8514 763 98 109 132 255
50.3529 -23.8514 763 135 153 126 255
-79.6748 -21.9793 791 154 183 220 255
-76.6356 -21.8959 788 135 145 188 255
-73.8986 -21.8959 788 120 136 154 255
-70.981 -21.8403 786 91 101 93 255
-68.251 -21.8403 786 48 34 37 255
-65.3542 -21.7847 784 57 30 7 255
18.3809 -21.0067 756 75 67 135 255
21.0623 -21.0623 758 74 83 118 255
23.6326 -21.0067 756 82 90 144 255
26.2584 -21.0067 756 91 89 145 255
28.846 -20.9789 755 101 106 135 255
31.385 -20.9234 753 103 112 129 255
33.9553 -20.8956 752 112 137 155 255
36.5673 -20.8956 752 125 156 163 255
39.1792 -20.8956 752 122 133 157 255
41.7911 -20.8956 752 111 125 106 255
44.7574 -21.0623 758 105 117 97 255
47.5777 -21.1457 761 105 109 106 255
50.3529 -21.2012 763 125 119 157 255
-82.4222 -19.2318 791 164 190 208 255
-79.4733 -19.1832 789 173 224 234 255
-76.6356 -19.1589 788 128 129 166 255
-73.7111 -19.1103 786 100 122 157 255
-70.981 -19.1103 786 90 104 107 255
-68.251 -19.1103 786 69 56 60 255
-65.3542 -19.0617 784 74 70 21 255
-13.3723 -18.7213 770 182 178 163 255
-10.6979 -18.7213 770 154 161 103 255
-8.00256 -18.6726 768 124 122 124 255
-5.3142 -18.5997 765 122 122 135 255
-2.6571 -18.5997 765 108 121 130 255
0 -18.5997 765 96 99 160 255
10.42 -18.235 750 250 254 254 255
15.7967 -18.4295 758 57 1 96 255
18.3809 -18.3809 756 61 73 90 255
21.0067 -18.3809 756 88 88 92 255
23.6326 -18.3809 756 107 127 118 255
26.2237 -18.3566 755 112 124 143 255
28.7696 -18.3079 753 113 123 143 255
31.385 -18.3079 753 119 137 130 255
33.9553 -18.2836 752 125 144 149 255
36.5673 -18.2836 752 129 137 143 255
39.1792 -18.2836 752 130 141 130 255
41.8467 -18.3079 753 108 91 112 255
44.6393 -18.3809 756 99 110 93 255
47.5152 -18.4781 760 115 141 120 255
50.3529 -18.5511 763 142 173 150 255
-85.3849 -16.5261 793 140 127 172 255
-82.4222 -16.4844 791 161 220 245 255
-79.4733 -16.4428 789 154 156 214 255
-76.4411 -16.3802 786 104 127 146 255
-73.7111 -16.3802 786 85 86 116 255
-70.981 -16.3802 786 84 106 116 255
-68.4247 -16.4219 788 77 87 88 255
-65.521 -16.3802 786 69 50 58 255
-18.7213 -16.0468 770 135 145 130 255
-16.0051 -16.0051 768 125 119 150 255
-13.3376 -16.0051 768 118 134 175 255
-10.6701 -16.0051 768 114 117 133 255
-7.99214 -15.9843 767 117 139 153 255
-5.3142 -15.9426 765 122 138 146 255
-2.6571 -15.9426 765 119 122 151 255
0 -15.9009 763 114 123 158 255
2.64321 -15.8592 761 128 160 153 255
5.22389 -15.6717 752 144 138 156 255
7.815 -15.63 750 192 254 254 255
13.1292 -15.755 756 74 14 12 255
15.7967 -15.7967 758 59 78 103 255
18.3809 -15.755 756 91 116 107 255
21.0067 -15.755 756 104 122 142 255
23.6326 -15.755 756 118 137 137 255
26.2237 -15.7342 755 134 143 148 255
28.7696 -15.6925 753 144 157 159 255
31.385 -15.6925 753 137 141 152 255
34.0005 -15.6925 753 126 129 134 255
36.5673 -15.6717 752 109 123 126 255
39.1792 -15.6717 752 80 72 83 255
41.9579 -15.7342 755 71 82 74 255
44.6393 -15.755 756 110 102 111 255
47.5152 -15.8384 760 152 157 126 255
-88.3616 -13.8065 795 138 147 172 255
-85.3849 -13.7718 793 151 167 182 255
-82.4222 -13.737 791 156 187 245 255
-79.3726 -13.6849 788 113 131 140 255
-76.4411 -13.6502 786 84 93 129 255
-73.7111 -13.6502 786 75 83 70 255
-70.981 -13.6502 786 70 98 114 255
-68.251 -13.6502 786 66 65 94 255
-65.6877 -13.6849 788 51 28 84 255
-26.8141 -13.4071 772 107 113 172 255
-24.1327 -13.4071 772 118 124 177 255
-21.3957 -13.3723 770 133 151 185 255
-18.7213 -13.3723 770 149 163 176 255
-16.0051 -13.3376 768 156 159 176 255
-13.3376 -13.3376 768 152 151 189 255
-10.6701 -13.3376 768 146 161 186 255
-7.9713 -13.2855 765 145 144 183 255
-5.30031 -13.2508 763 132 145 158 255
-2.65015 -13.2508 763 118 123 164 255
0 -13.216 761 113 122 155 255
2.62237 -13.1118 755 107 125 138 255
5.22389 -13.0597 752 96 122 127 255
7.83584 -13.0597 752 72 98 153 255
10.4478 -13.0597 752 30 1 121 255
13.1292 -13.1292 756 35 59 17 255
15.755 -13.1292 756 96 91 136 255
18.3809 -13.1292 756 131 127 136 255
21.0067 -13.1292 756 148 176 168 255
23.6326 -13.1292 756 164 177 172 255
26.2237 -13.1118 755 157 176 159 255
28.846 -13.1118 755 138 150 156 255
31.385 -13.0771 753 129 126 157 255
34.0005 -13.0771 753 128 118 126 255
36.6159 -13.0771 753 107 115 131 255
39.2313 -13.0771 753 83 64 69 255
42.0134 -13.1292 756 84 76 80 255
44.7574 -13.1639 758 122 135 142 255
47.5152 -13.1987 760 154 164 135 255
-91.4668 -11.0869 798 109 98 162 255
-88.5839 -11.073 797 129 140 192 255
-85.3849 -11.0174 793 181 227 216 255
-82.4222 -10.9896 791 168 187 198 255
-79.3726 -10.9479 788 106 100 106 255
-76.4411 -10.9202 786 81 76 102 255
-73.7111 -10.9202 786 87 91 90 255
-71.1617 -10.9479 788 85 98 127 255
-68.4247 -10.9479 788 57 65 80 255
-65.771 -10.9618 789 40 49 61 255
-63.0306 -10.9618 789 64 84 100 255
-51.7388 -10.8924 784 92 99 124 255
-49.0157 -10.8924 784 93 121 146 255
-46.1745 -10.8646 782 95 103 140 255
-43.3472 -10.8368 780 112 123 175 255
-40.638 -10.8368 780 145 152 214 255
-37.8802 -10.8229 779 157 168 165 255
-35.0841 -10.7951 777 148 177 176 255
-32.302 -10.7673 775 134 127 122 255
-29.5338 -10.7395 773 150 176 193 255
-26.8141 -10.7257 772 189 208 220 255
-24.1327 -10.7257 772 205 229 231 255
-21.3957 -10.6979 770 204 210 236 255
-18.7213 -10.6979 770 199 224 238 255
-16.0051 -10.6701 768 192 195 202 255
-13.3202 -10.6562 767 193 206 220 255
-10.6562 -10.6562 767 206 213 231 255
-7.9713 -10.6284 765 216 241 235 255
-5.3142 -10.6284 765 199 217 204 255
-2.65015 -10.6006 763 154 156 180 255
0 -10.5589 760 115 126 147 255
2.62584 -10.5034 756 99 116 133 255
5.23084 -10.4617 753 87 97 133 255
7.83584 -10.4478 752 78 79 75 255
10.5034 -10.5034 756 87 87 130 255
13.1292 -10.5034 756 122 146 97 255
15.7967 -10.5311 758 151 156 169 255
18.3809 -10.5034 756 141 139 138 255
21.0067 -10.5034 756 125 133 160 255
23.6326 -10.5034 756 124 137 153 255
26.2584 -10.5034 756 124 127 147 255
28.8842 -10.5034 756 117 126 145 255
31.4684 -10.4895 755 121 134 143 255
34.0005 -10.4617 753 135 143 124 255
36.7131 -10.4895 755 140 145 123 255
39.3355 -10.4895 755 138 137 104 255
-97.0102 -8.31516 798 135 146 170 255
-94.2385 -8.31516 798 124 109 158 255
-91.3521 -8.30474 797 150 138 182 255
-88.3616 -8.2839 795 182 210 218 255
-85.3849 -8.26306 793 176 194 234 255
-82.4222 -8.24222 791 151 175 186 255
-79.4733 -8.22138 789 113 114 118 255
-76.6356 -8.21096 788 93 85 118 255
-73.8986 -8.21096 788 95 119 121 255
-71.1617 -8.21096 788 84 90 117 255
-68.4247 -8.21096 788 71 54 70 255
-65.771 -8.22138 789 65 77 65 255
-62.9507 -8.21096 788 70 76 38 255
-60.0609 -8.19012 786 92 113 110 255
-57.185 -8.16928 784 113 111 115 255
-54.3229 -8.14844 782 128 133 148 255
-51.6068 -8.14844 782 136 154 135 255
-48.8906 -8.14844 782 130 147 151 255
-46.1745 -8.14844 782 126 128 140 255
-43.3472 -8.1276 780 138 156 180 255
-40.5859 -8.11718 779 157 187 220 255
-37.7829 -8.09634 777 144 162 174 255
-35.0841 -8.09634 777 109 115 176 255
-32.2186 -8.05466 773 105 117 159 255
-29.4955 -8.04424 772 144 155 244 255
-26.8141 -8.04424 772 192 236 246 255
-24.0702 -8.0234 770 216 239 250 255
-21.3957 -8.0234 770 217 249 247 255
-18.6726 -8.00256 768 204 214 233 255
-15.9843 -7.99214 767 212 236 239 255
-13.3202 -7.99214 767 227 234 244 255
-10.6562 -7.99214 767 226 246 250 255
-7.9713 -7.9713 765 220 246 241 255
-5.30031 -7.95046 763 192 192 220 255
-2.65015 -7.95046 763 144 152 158 255
0 -7.92962 761 113 120 148 255
2.63973 -7.9192 760 107 99 128 255
5.27947 -7.9192 760 107 118 119 255
7.9192 -7.9192 760 116 135 120 255
10.5589 -7.9192 760 127 142 153 255
13.1987 -7.9192 760 127 125 152 255
15.7967 -7.89836 758 111 105 142 255
18.4295 -7.89836 758 97 101 119 255
21.0067 -7.87752 756 104 100 130 255
23.6951 -7.89836 758 120 126 132 255
26.3279 -7.89836 758 142 154 155 255
28.9607 -7.89836 758 165 177 157 255
31.5934 -7.89836 758 171 187 154 255
-106.117 -5.58512 804 192 223 166 255
-102.811 -5.55733 800 204 219 209 255
-99.7819 -5.54344 798 175 175 181 255
-97.0102 -5.54344 798 159 182 191 255
-94.2385 -5.54344 798 159 177 159 255
-91.1229 -5.5226 795 145 163 196 255
-88.1393 -5.50871 793 157 181 217 255
-85.1696 -5.49481 791 174 196 217 255
-82.2138 -5.48092 789 131 142 177 255
-79.4733 -5.48092 789 95 108 140 255
-76.6356 -5.47397 788 108 119 132 255
-73.8986 -5.47397 788 108 127 126 255
-71.1617 -5.47397 788 72 74 102 255
-68.4247 -5.47397 788 61 85 69 255
-65.771 -5.48092 789 106 123 132 255
-62.9507 -5.47397 788 137 146 84 255
-60.0609 -5.46008 786 157 200 171 255
-57.185 -5.44619 784 165 175 160 255
-54.4619 -5.44619 784 150 156 187 255
-51.6068 -5.43229 782 139 164 183 255
-48.8906 -5.43229 782 129 144 169 255
-46.0564 -5.4184 780 107 104 149 255
-43.2916 -5.41145 779 96 103 171 255
-40.5859 -5.41145 779 97 122 183 255
-37.7829 -5.39756 777 104 79 174 255
-34.9938 -5.38367 775 132 128 157 255
-32.2186 -5.36977 773 164 181 170 255
-29.4955 -5.36283 772 186 217 229 255
-26.8141 -5.36283 772 190 212 240 255
-24.0702 -5.34893 770 174 159 214 255
-21.3957 -5.34893 770 149 147 238 255
-18.6726 -5.33504 768 165 177 231 255
-15.9843 -5.32809 767 193 199 241 255
-13.3376 -5.33504 768 198 223 247 255
-10.6562 -5.32809 767 200 222 251 255
-7.99214 -5.32809 767 176 194 211 255
-5.32809 -5.32809 767 138 153 175 255
-2.6571 -5.3142 765 126 137 138 255
0 -5.30031 763 126 132 145 255
2.65015 -5.30031 763 117 116 137 255
5.30031 -5.30031 763 109 108 136 255
7.92962 -5.28641 761 110 125 142 255
10.5589 -5.27947 760 115 133 144 255
18.4295 -5.26557 758 150 133 130 255
21.0623 -5.26557 758 153 137 140 255
23.6951 -5.26557 758 158 163 145 255
-109.181 -2.79951 806 169 171 211 255
-105.853 -2.78561 802 169 210 217 255
-102.811 -2.77867 800 141 144 187 255
-99.7819 -2.77172 798 130 134 180 255
-97.0102 -2.77172 798 136 179 200 255
-94.1204 -2.76825 797 111 123 170 255
-90.8937 -2.75435 793 93 101 165 255
-87.917 -2.74741 791 138 164 206 255
-85.1696 -2.74741 791 166 202 201 255
-82.4222 -2.74741 791 128 132 144 255
-79.4733 -2.74046 789 103 115 159 255
-76.7329 -2.74046 789 100 109 143 255
-73.9924 -2.74046 789 90 89 136 255
-71.252 -2.74046 789 74 97 121 255
-68.4247 -2.73699 788 95 102 110 255
-65.6877 -2.73699 788 127 157 183 255
-62.7909 -2.73004 786 122 132 135 255
-59.9081 -2.72309 784 104 124 176 255
-57.185 -2.72309 784 90 96 152 255
-54.3229 -2.71615 782 97 122 167 255
-51.6068 -2.71615 782 108 113 164 255
-48.7656 -2.7092 780 114 103 182 255
-45.9974 -2.70573 779 130 129 179 255
-43.2916 -2.70573 779 151 148 188 255
-40.4817 -2.69878 777 178 211 216 255
-37.6857 -2.69183 775 195 225 220 255
-34.9938 -2.69183 775 173 188 151 255
-32.2186 -2.68489 773 152 139 163 255
-29.4955 -2.68141 772 143 156 198 255
-26.8141 -2.68141 772 136 129 235 255
-24.0702 -2.67447 770 163 166 205 255
-21.3957 -2.67447 770 197 229 239 255
-18.6726 -2.66752 768 210 220 243 255
-16.0051 -2.66752 768 206 223 238 255
-13.3376 -2.66752 768 178 202 231 255
-10.6979 -2.67447 770 149 157 210 255
-8.0234 -2.67447 770 146 167 187 255
-5.33504 -2.66752 768 135 103 137 255
-2.66752 -2.66752 768 124 115 154 255
0 -2.65015 763 146 169 152 255
2.65015 -2.65015 763 158 163 160 255
5.30031 -2.65015 763 153 159 153 255
-115.349 0 810 104 113 145 255
-112.536 0 810 103 106 158 255
-109.181 0 806 136 187 179 255
-105.853 0 802 152 135 208 255
-102.811 0 800 134 146 163 255
-99.7819 0 798 138 167 164 255
-96.8886 0 797 122 88 167 255
-94.1204 0 797 106 108 153 255
-90.8937 0 793 138 152 184 255
-87.917 0 791 180 227 228 255
-85.1696 0 791 137 144 177 255
-82.2138 0 789 101 121 155 255
-79.4733 0 789 106 123 160 255
-76.7329 0 789 101 114 150 255
-73.9924 0 789 97 124 144 255
-71.252 0 789 114 127 164 255
-68.4247 0 788 148 164 177 255
-65.6877 0 788 157 170 200 255
-62.9507 0 788 143 124 156 255
-60.0609 0 786 156 146 187 255
-57.185 0 784 183 185 184 255
-54.4619 0 784 182 181 203 255
-51.6068 0 782 170 133 195 255
-48.7656 0 780 199 208 232 255
-46.0564 0 780 239 254 242 255
-43.2916 0 779 242 254 233 255
-40.5859 0 779 223 237 252 255
-37.7829 0 777 198 204 245 255
-34.9938 0 775 180 162 175 255
-32.302 0 775 179 181 202 255
-29.5338 0 773 198 224 209 255
-26.8489 0 773 215 244 246 255
-24.1327 0 772 216 243 235 255
-21.3957 0 770 199 221 246 255
-18.6726 0 768 185 193 231 255
-16.0051 0 768 169 178 198 255
-13.3723 0 770 162 177 190 255
-10.7257 0 772 148 143 164 255
-8.05466 0 773 120 123 142 255
-124.401 2.82729 814 104 103 148 255
-121.275 2.82035 812 105 121 143 255
-118.163 2.8134 810 110 101 142 255
-115.349 2.8134 810 114 114 153 255
-112.536 2.8134 810 128 137 159 255
-109.181 2.79951 806 142 138 191 255
-105.589 2.77867 800 148 166 192 255
-102.554 2.77172 798 151 170 177 255
-99.6569 2.76825 797 146 159 153 255
-96.8886 2.76825 797 145 146 180 255
-93.8842 2.7613 795 196 222 189 255
-91.3521 2.76825 797 227 254 232 255
-87.917 2.74741 791 153 167 218 255
-85.1696 2.74741 791 95 77 140 255
-82.4222 2.74741 791 127 145 186 255
-79.6748 2.74741 791 138 172 187 255
-76.7329 2.74046 789 115 84 130 255
-73.9924 2.74046 789 132 123 185 255
-71.252 2.74046 789 178 230 206 255
-68.5115 2.74046 789 188 200 211 255
-65.6877 2.73699 788 192 204 215 255
-62.9507 2.73699 788 216 254 215 255
-60.0609 2.73004 786 233 253 241 255
-57.3308 2.73004 786 243 254 252 255
-54.4619 2.72309 784 244 254 253 255
-51.7388 2.72309 784 244 254 247 255
-48.8906 2.71615 782 243 254 254 255
-46.0564 2.7092 780 228 254 244 255
-43.3472 2.7092 780 204 218 240 255
-40.5859 2.70573 779 202 219 245 255
-37.7829 2.69878 777 212 244 250 255
-34.9938 2.69183 775 217 238 239 255
-32.302 2.69183 775 209 233 242 255
-29.6102 2.69183 775 190 205 217 255
-26.9183 2.69183 775 166 167 200 255
-24.164 2.68489 773 155 168 188 255
-10.7257 2.68141 772 155 156 146 255
-130.215 5.66153 815 134 137 161 255
-127.384 5.66153 815 110 120 148 255
-124.401 5.65459 814 123 117 178 255
-121.275 5.64069 812 155 168 172 255
-118.455 5.64069 812 164 171 175 255
-115.065 5.61291 808 156 171 177 255
-111.98 5.59901 806 152 161 187 255
-108.91 5.58512 804 150 152 195 255
-105.325 5.54344 798 172 220 221 255
-102.554 5.54344 798 156 144 198 255
-99.6569 5.53649 797 134 97 159 255
-96.8886 5.53649 797 188 212 229 255
-93.8842 5.5226 795 235 241 254 255
-91.3521 5.53649 797 221 254 246 255
-88.5839 5.53649 797 146 136 147 255
-85.3849 5.50871 793 107 119 139 255
-82.6306 5.50871 793 125 169 175 255
-79.8762 5.50871 793 115 126 179 255
-76.9274 5.49481 791 115 130 128 255
-74.18 5.49481 791 133 150 181 255
-71.4326 5.49481 791 110 105 169 255
-68.6852 5.49481 791 89 91 181 255
-65.771 5.48092 789 107 127 181 255
-63.0306 5.48092 789 117 135 199 255
-60.2137 5.47397 788 124 158 206 255
-57.3308 5.46008 786 142 180 219 255
-54.6008 5.46008 786 156 188 220 255
-51.6068 5.43229 782 159 178 222 255
-48.8906 5.43229 782 159 186 223 255
-46.1745 5.43229 782 152 152 203 255
-43.4583 5.43229 782 154 164 202 255
-136.544 8.53398 819 134 159 202 255
-133.699 8.53398 819 123 105 176 255
-130.535 8.51314 817 123 136 148 255
-127.697 8.51314 817 131 145 169 255
-124.401 8.48188 814 143 126 195 255
-120.677 8.41936 808 154 174 190 255
-117.871 8.41936 808 154 170 192 255
-114.78 8.39852 806 134 158 164 255
-111.702 8.37768 804 124 87 189 255
-108.639 8.35684 802 185 247 222 255
-105.589 8.336 800 214 245 242 255
-102.554 8.31516 798 190 147 233 255
-99.7819 8.31516 798 220 254 219 255
-96.8886 8.30474 797 218 254 243 255
-94.2385 8.31516 798 166 164 198 255
-91.3521 8.30474 797 126 135 198 255
-88.5839 8.30474 797 113 135 139 255
-85.6003 8.2839 795 117 129 133 255
-82.839 8.2839 795 121 124 131 255
-80.0777 8.2839 795 127 138 134 255
-77.1219 8.26306 793 136 142 143 255
-74.3675 8.26306 793 142 148 145 255
-71.6132 8.26306 793 151 159 130 255
-68.8588 8.26306 793 152 156 146 255
-139.729 11.4064 821 133 154 191 255
-136.544 11.3786 819 132 144 187 255
-133.373 11.3509 817 131 141 187 255
-130.215 11.3231 815 130 144 170 255
-127.228 11.3092 814 135 155 191 255
-124.095 11.2814 812 148 168 189 255
-120.677 11.2258 808 156 181 187 255
-117.579 11.198 806 130 135 191 255
-114.78 11.198 806 124 78 175 255
-111.702 11.1702 804 191 229 220 255
-108.639 11.1425 802 233 254 252 255
-105.589 11.1147 800 223 212 241 255
-102.554 11.0869 798 230 254 248 255
-99.7819 11.0869 798 183 189 240 255
-97.0102 11.0869 798 122 121 188 255
-94.2385 11.0869 798 125 122 130 255
-91.4668 11.0869 798 136 143 152 255
-88.695 11.0869 798 127 129 132 255
-85.9233 11.0869 798 115 128 116 255
-83.1516 11.0869 798 119 126 110 255
-149.728 14.397 829 180 149 237 255
-146.495 14.3622 827 182 206 217 255
-142.928 14.2928 823 194 221 236 255
-139.729 14.258 821 149 155 181 255
-136.544 14.2233 819 126 138 189 255
-133.373 14.1886 817 128 142 200 255
-130.215 14.1538 815 126 143 193 255
-127.228 14.1365 814 127 145 189 255
-124.095 14.1017 812 126 143 178 255
-120.677 14.0323 808 118 86 192 255
-117.871 14.0323 808 169 195 222 255
-114.78 13.9975 806 234 254 234 255
-111.702 13.9628 804 244 248 252 255
-108.91 13.9628 804 242 254 252 255
-105.853 13.9281 802 240 254 250 255
-103.068 13.9281 802 203 234 235 255
-100.282 13.9281 802 150 156 199 255
-97.0102 13.8586 798 142 146 150 255
-94.2385 13.8586 798 161 160 131 255
-91.4668 13.8586 798 165 165 146 255
-156.613 17.4014 835 171 201 246 255
-152.608 17.2764 829 254 254 251 255
-149.367 17.2347 827 247 254 237 255
-146.141 17.193 825 242 254 251 255
-142.58 17.1096 821 208 233 228 255
-139.729 17.1096 821 146 131 167 255
-136.544 17.068 819 120 137 190 255
-133.373 17.0263 817 121 140 176 255
-130.055 16.9638 814 111 124 173 255
-127.228 16.9638 814 93 99 157 255
-123.79 16.8804 810 144 156 200 255
-120.976 16.8804 810 224 251 225 255
-117.871 16.8387 808 246 254 254 255
-114.78 16.797 806 246 254 254 255
-111.98 16.797 806 225 246 236 255
-109.181 16.797 806 175 183 224 255
-106.381 16.797 806 112 116 169 255
-103.325 16.7554 804 71 74 151 255
-100.282 16.7137 802 78 60 134 255
-156.237 20.253 833 190 254 250 255
-152.608 20.1558 829 254 254 254 255
-149.367 20.1071 827 230 220 250 255
-146.141 20.0585 825 206 232 250 255
-142.58 19.9612 821 181 163 217 255
-139.729 19.9612 821 125 126 171 255
-136.544 19.9126 819 80 55 173 255
-133.699 19.9126 819 81 68 143 255
-130.215 19.8154 815 137 198 190 255
-127.384 19.8154 815 172 80 151 255
-124.401 19.7911 814 206 254 240 255
-121.275 19.7424 812 246 254 254 255
-118.455 19.7424 812 214 241 235 255
-115.349 19.6938 810 156 184 219 255
-111.98 19.5965 806 120 112 179 255
-109.452 19.6452 808 117 104 163 255
-155.487 23.0351 829 238 254 254 255
-152.24 22.9796 827 254 254 254 255
-149.006 22.924 825 253 254 254 255
-146.141 22.924 825 246 253 252 255
-142.928 22.8684 823 246 254 242 255
-139.729 22.8129 821 182 228 186 255
-136.544 22.7573 819 93 1 154 255
-133.699 22.7573 819 153 203 191 255
-130.854 22.7573 819 232 254 243 255
-128.01 22.7573 819 182 221 170 255
-124.554 22.6461 815 121 106 175 255
-122.022 22.7017 817 109 141 174 255
-118.746 22.6183 814 100 74 159 255
-155.112 25.852 827 246 254 254 255
-152.24 25.852 827 254 254 254 255
-149.006 25.7895 825 252 254 254 255
-146.141 25.7895 825 251 254 253 255
-142.928 25.727 823 247 254 254 255
-139.729 25.6645 821 214 228 223 255
-136.877 25.6645 821 190 193 194 255
-133.699 25.6019 819 213 252 254 255
-130.854 25.6019 819 171 199 217 255
-128.01 25.6019 819 80 45 92 255
-125.165 25.6019 819 79 93 103 255
-122.32 25.6019 819 113 114 112 255
-155.487 28.7939 829 166 165 214 255
-152.24 28.7245 827 228 254 254 255
-149.367 28.7245 827 252 254 254 255
-146.495 28.7245 827 251 254 254 255
-143.275 28.655 825 243 251 252 255
-140.069 28.5855 823 218 238 244 255
-136.877 28.5161 821 192 220 239 255
-133.699 28.4466 819 162 191 227 255
-131.174 28.5161 821 115 109 132 255
-128.01 28.4466 819 101 100 56 255
-125.471 28.5161 821 113 109 100 255
-155.487 31.6733 829 132 116 157 255
-152.608 31.6733 829 213 254 254 255
-149.367 31.5969 827 217 226 247 255
-146.495 31.5969 827 194 226 251 255
-143.622 31.5969 827 199 227 252 255
-140.41 31.5205 825 172 191 218 255
-136.877 31.3677 821 132 139 203 255
-134.352 31.4441 823 114 120 167 255
-156.237 34.7194 833 99 101 131 255
-152.608 34.5527 829 120 171 206 255
-149.728 34.5527 829 120 122 186 255
-146.849 34.5527 829 106 122 174 255
-143.97 34.5527 829 125 154 193 255
-141.09 34.5527 829 126 135 163 255
-137.877 34.4694 827 125 133 146 255
-134.678 34.386 825 126 144 130 255
-150.451 37.6127 833 111 115 134 255
